ply
format ascii 1.0
element vertex 1904
property float x
property float y
property float z
element face 0
property list uchar int vertex_index
end_header
-0.552724 11.9141 1.66331
-0.552795 11.9141 1.66335
-0.552882 11.914 1.6634
-0.552979 11.914 1.66346
-0.553067 11.914 1.66351
-0.553117 11.914 1.66355
-0.553102 11.914 1.66355
-0.553004 11.9141 1.66351
-0.552828 11.9142 1.66343
-0.5526 11.9142 1.66332
-0.552354 11.9143 1.66321
-0.55213 11.9143 1.6631
-0.551948 11.9142 1.66301
-0.551816 11.9142 1.66295
-0.551727 11.9141 1.6629
-0.551671 11.9141 1.66286
-0.551634 11.9141 1.66283
-0.55161 11.9141 1.6628
-0.551602 11.9141 1.66278
-0.551622 11.9142 1.66277
-0.551676 11.9143 1.66279
-0.551779 11.9144 1.66285
-0.551927 11.9145 1.66293
-0.552121 11.9146 1.66304
-0.55235 11.9146 1.66317
-0.552599 11.9146 1.6633
-0.552844 11.9146 1.66342
-0.553063 11.9145 1.66351
-0.553239 11.9144 1.66359
-0.553369 11.9144 1.66365
-0.553445 11.9143 1.66369
-0.553467 11.9143 1.66371
-0.553438 11.9143 1.66371
-0.553364 11.9143 1.66369
-0.553257 11.9144 1.66364
-0.553137 11.9145 1.66359
-0.553027 11.9145 1.66353
-0.552951 11.9146 1.66348
-0.552925 11.9146 1.66347
-0.552955 11.9146 1.66348
-0.553028 11.9145 1.66353
-0.553122 11.9145 1.66359
-0.553206 11.9144 1.66364
-0.553261 11.9143 1.66368
-0.553269 11.9142 1.66369
-0.553226 11.9142 1.66367
-0.553136 11.9141 1.66362
-0.553011 11.9141 1.66356
-0.552871 11.9141 1.66348
-0.55273 11.9141 1.66341
-0.552595 11.9142 1.66333
-0.552459 11.9142 1.66324
-0.552319 11.9143 1.66315
-0.552166 11.9144 1.66305
-0.552008 11.9145 1.66294
-0.551865 11.9145 1.66286
-0.551765 11.9145 1.6628
-0.551729 11.9145 1.66277
-0.551762 11.9145 1.66279
-0.551856 11.9144 1.66284
-0.55199 11.9143 1.66292
-0.552133 11.9142 1.66299
-0.552252 11.9142 1.66306
-0.552317 11.9142 1.66311
-0.552319 11.9142 1.66312
-0.552259 11.9142 1.66311
-0.552158 11.9142 1.66307
-0.552038 11.9142 1.66302
-0.551925 11.9141 1.66296
-0.551841 11.9141 1.66291
-0.551805 11.9141 1.66288
-0.551836 11.9141 1.66287
-0.55194 11.9142 1.6629
-0.552113 11.9142 1.66296
-0.552341 11.9142 1.66304
-0.552593 11.9142 1.66314
-0.552836 11.9142 1.66323
-0.553032 11.9142 1.66331
-0.553155 11.9141 1.66336
-0.553207 11.9141 1.6634
-0.553207 11.9141 1.66342
-0.553185 11.9142 1.66343
-0.553168 11.9143 1.66344
-0.553175 11.9144 1.66346
-0.553213 11.9144 1.66349
-0.553271 11.9144 1.66352
-0.553325 11.9144 1.66356
-0.553352 11.9144 1.66359
-0.553331 11.9144 1.6636
-0.553255 11.9145 1.6636
-0.553122 11.9145 1.66357
-0.552943 11.9146 1.66352
-0.552739 11.9146 1.66345
-0.552534 11.9147 1.66338
-0.552346 11.9147 1.6633
-0.552199 11.9147 1.66324
-0.552108 11.9147 1.6632
-0.552088 11.9147 1.66319
-0.552143 11.9146 1.66322
-0.552266 11.9146 1.66328
-0.552439 11.9145 1.66337
-0.552635 11.9145 1.66346
-0.552832 11.9144 1.66356
-0.553007 11.9144 1.66365
-0.553152 11.9143 1.66373
-0.553261 11.9143 1.66379
-0.553337 11.9142 1.66382
-0.553379 11.9141 1.66383
-0.553378 11.914 1.66381
-0.553327 11.914 1.66376
-0.553226 11.914 1.66368
-0.553074 11.9141 1.66357
-0.552879 11.9142 1.66344
-0.552647 11.9143 1.66331
-0.5524 11.9144 1.66318
-0.552169 11.9145 1.66307
-0.551988 11.9146 1.663
-0.551891 11.9146 1.66298
-0.551899 11.9146 1.66302
-0.552019 11.9145 1.66311
-0.552235 11.9144 1.66324
-0.552512 11.9142 1.66339
-0.552806 11.9141 1.66353
-0.553064 11.914 1.66365
-0.553242 11.9139 1.66371
-0.553316 11.9139 1.66372
-0.553291 11.9138 1.66368
-0.55319 11.9138 1.66361
-0.553061 11.9138 1.66352
-0.552947 11.9138 1.66345
-0.552887 11.9139 1.66341
-0.552901 11.9139 1.66341
-0.552986 11.9139 1.66345
-0.553125 11.9139 1.66352
-0.553284 11.9139 1.66361
-0.553432 11.914 1.66369
-0.553534 11.914 1.66376
-0.553567 11.914 1.66379
-0.553519 11.9141 1.66379
-0.553401 11.9142 1.66374
-0.553232 11.9143 1.66367
-0.553045 11.9144 1.66358
-0.552871 11.9144 1.66349
-0.552736 11.9144 1.66342
-0.552653 11.9143 1.66337
-0.55262 11.9143 1.66334
-0.552631 11.9142 1.66335
-0.552673 11.9142 1.66338
-0.552729 11.9142 1.66343
-0.552778 11.9142 1.66348
-0.552798 11.9143 1.66351
-0.552768 11.9144 1.66351
-0.552681 11.9144 1.66347
-0.55254 11.9145 1.66341
-0.552365 11.9146 1.66332
-0.552188 11.9146 1.66323
-0.552039 11.9147 1.66314
-0.551949 11.9147 1.66308
-0.551932 11.9146 1.66305
-0.551993 11.9146 1.66305
-0.552122 11.9146 1.66309
-0.552298 11.9146 1.66315
-0.552496 11.9146 1.66324
-0.552698 11.9146 1.66334
-0.552883 11.9146 1.66345
-0.553045 11.9146 1.66355
-0.55318 11.9145 1.66363
-0.553285 11.9144 1.6637
-0.553367 11.9143 1.66375
-0.553422 11.9142 1.66377
-0.553451 11.914 1.66377
-0.553453 11.9139 1.66375
-0.55343 11.9138 1.66371
-0.553375 11.9137 1.66365
-0.553287 11.9136 1.66358
-0.553169 11.9136 1.6635
-0.553029 11.9137 1.66343
-0.55288 11.9137 1.66336
-0.552724 11.9138 1.6633
-0.552571 11.914 1.66326
-0.552426 11.9141 1.66323
-0.552307 11.9141 1.66321
-0.552235 11.9142 1.66321
-0.552226 11.9142 1.66323
-0.552288 11.9142 1.66328
-0.552411 11.9142 1.66334
-0.552577 11.9142 1.66341
-0.552761 11.9142 1.66349
-0.552947 11.9142 1.66356
-0.553122 11.9142 1.66363
-0.553276 11.9142 1.66368
-0.553401 11.9141 1.66372
-0.55349 11.9141 1.66374
-0.553542 11.9141 1.66374
-0.55356 11.9141 1.66373
-0.553545 11.9141 1.66371
-0.553506 11.9141 1.66367
-0.553447 11.9141 1.66363
-0.55338 11.9142 1.66359
-0.553318 11.9143 1.66357
-0.553273 11.9143 1.66356
-0.553245 11.9144 1.66358
-0.553226 11.9144 1.6636
-0.553202 11.9144 1.66361
-0.55316 11.9143 1.66362
-0.553088 11.9143 1.6636
-0.552984 11.9143 1.66355
-0.552859 11.9143 1.66349
-0.552736 11.9143 1.66343
-0.552639 11.9144 1.66337
-0.552596 11.9144 1.66334
-0.552621 11.9145 1.66334
-0.552714 11.9145 1.66338
-0.552857 11.9145 1.66345
-0.55303 11.9145 1.66353
-0.553202 11.9144 1.66361
-0.55335 11.9143 1.66367
-0.553457 11.9142 1.66371
-0.553506 11.9141 1.66371
-0.553485 11.914 1.66367
-0.553396 11.914 1.6636
-0.553236 11.914 1.66351
-0.553022 11.9142 1.6634
-0.552777 11.9143 1.6633
-0.552527 11.9144 1.6632
-0.552293 11.9146 1.66312
-0.552103 11.9146 1.66306
-0.551976 11.9146 1.66303
-0.551926 11.9146 1.66303
-0.551964 11.9145 1.66306
-0.552083 11.9144 1.66313
-0.552271 11.9142 1.66323
-0.552505 11.9141 1.66335
-0.552751 11.914 1.66347
-0.552981 11.9139 1.66358
-0.553166 11.9139 1.66367
-0.553282 11.9139 1.66373
-0.553322 11.914 1.66375
-0.553288 11.9141 1.66374
-0.553197 11.9143 1.66371
-0.553065 11.9144 1.66365
-0.552914 11.9145 1.66359
-0.552767 11.9146 1.66352
-0.55264 11.9147 1.66346
-0.552543 11.9146 1.66341
-0.552481 11.9146 1.66338
-0.552434 11.9146 1.66335
-0.552382 11.9145 1.66331
-0.552305 11.9145 1.66325
-0.5522 11.9144 1.66318
-0.552077 11.9144 1.66309
-0.551956 11.9144 1.66302
-0.551855 11.9144 1.66296
-0.551789 11.9144 1.66293
-0.55177 11.9144 1.66293
-0.551797 11.9145 1.66297
-0.551873 11.9146 1.66303
-0.551988 11.9146 1.66312
-0.552132 11.9147 1.66323
-0.552283 11.9148 1.66333
-0.552424 11.9148 1.66341
-0.552543 11.9148 1.66347
-0.552638 11.9148 1.66351
-0.552715 11.9147 1.66352
-0.552787 11.9146 1.66353
-0.552865 11.9145 1.66353
-0.552956 11.9144 1.66355
-0.553065 11.9143 1.66358
-0.553179 11.9143 1.66364
-0.553293 11.9143 1.66371
-0.553398 11.9142 1.66379
-0.553483 11.9142 1.66385
-0.553541 11.9142 1.66389
-0.553567 11.9142 1.66391
-0.553561 11.9143 1.66391
-0.553536 11.9143 1.66389
-0.553507 11.9144 1.66386
-0.55349 11.9144 1.66383
-0.553495 11.9143 1.6638
-0.553524 11.9143 1.6638
-0.553566 11.9142 1.6638
-0.55361 11.9142 1.66382
-0.553642 11.9141 1.66385
-0.553651 11.9141 1.66389
-0.553641 11.9141 1.66392
-0.553613 11.9141 1.66393
-0.553579 11.9142 1.66393
-0.553545 11.9142 1.66391
-0.553516 11.9142 1.66386
-0.553486 11.9142 1.6638
-0.553456 11.9142 1.66373
-0.553418 11.9142 1.66366
-0.553367 11.9142 1.66359
-0.5533 11.9143 1.66353
-0.553218 11.9143 1.66348
-0.553127 11.9144 1.66345
-0.55303 11.9144 1.66344
-0.552932 11.9145 1.66343
-0.552834 11.9145 1.66342
-0.552743 11.9145 1.66341
-0.552668 11.9146 1.6634
-0.55263 11.9146 1.6634
-0.552636 11.9147 1.66341
-0.552692 11.9147 1.66344
-0.552796 11.9147 1.66349
-0.552937 11.9146 1.66355
-0.5531 11.9146 1.66362
-0.553272 11.9145 1.66369
-0.553427 11.9143 1.66375
-0.553542 11.9142 1.66379
-0.553598 11.914 1.6638
-0.553583 11.9138 1.66377
-0.553497 11.9137 1.66373
-0.553346 11.9136 1.66366
-0.553148 11.9136 1.66358
-0.55292 11.9136 1.66348
-0.552681 11.9137 1.66338
-0.552449 11.9138 1.66328
-0.552253 11.914 1.6632
-0.552108 11.9142 1.66315
-0.552025 11.9144 1.66312
-0.552007 11.9145 1.66313
-0.552045 11.9145 1.66316
-0.552128 11.9145 1.6632
-0.552252 11.9144 1.66324
-0.552408 11.9144 1.6633
-0.552587 11.9143 1.66336
-0.552769 11.9142 1.66343
-0.552929 11.9142 1.66349
-0.553051 11.9142 1.66354
-0.553127 11.9142 1.66357
-0.553162 11.9142 1.66359
-0.553175 11.9142 1.66361
-0.553177 11.9142 1.66362
-0.553179 11.9142 1.66363
-0.553182 11.9141 1.66365
-0.553184 11.914 1.66366
-0.553183 11.914 1.66368
-0.553175 11.9139 1.66368
-0.553162 11.914 1.66367
-0.553154 11.914 1.66366
-0.553152 11.9141 1.66364
-0.553157 11.9142 1.66362
-0.553161 11.9142 1.66361
-0.553155 11.9143 1.66359
-0.553129 11.9143 1.66358
-0.553076 11.9144 1.66357
-0.552996 11.9143 1.66356
-0.552896 11.9143 1.66354
-0.552797 11.9143 1.66352
-0.552712 11.9142 1.6635
-0.552667 11.9141 1.66349
-0.552668 11.9141 1.66349
-0.552717 11.914 1.66351
-0.552802 11.9139 1.66354
-0.552914 11.9138 1.66359
-0.553039 11.9137 1.66365
-0.553171 11.9137 1.66372
-0.553301 11.9137 1.66379
-0.553418 11.9137 1.66386
-0.553514 11.9138 1.66392
-0.553583 11.9139 1.66395
-0.553619 11.914 1.66396
-0.553618 11.9141 1.66394
-0.553579 11.9142 1.66389
-0.553505 11.9143 1.66382
-0.55341 11.9143 1.66375
-0.553312 11.9144 1.66368
-0.553233 11.9144 1.66363
-0.553184 11.9143 1.66362
-0.553164 11.9143 1.66363
-0.553165 11.9142 1.66367
-0.553183 11.9141 1.66372
-0.553213 11.9141 1.66377
-0.55325 11.914 1.66382
-0.553285 11.914 1.66386
-0.553313 11.914 1.66388
-0.55333 11.914 1.66389
-0.553331 11.914 1.66388
-0.553322 11.9141 1.66385
-0.553304 11.9141 1.66381
-0.55328 11.9141 1.66375
-0.553246 11.9142 1.66369
-0.553204 11.9142 1.66364
-0.55315 11.9142 1.66359
-0.553088 11.9142 1.66355
-0.553027 11.9143 1.66354
-0.55298 11.9143 1.66356
-0.552959 11.9143 1.6636
-0.552972 11.9143 1.66366
-0.553015 11.9143 1.66374
-0.553065 11.9144 1.66382
-0.553089 11.9143 1.66388
-0.553059 11.9143 1.66392
-0.552952 11.9143 1.66393
-0.552775 11.9143 1.6639
-0.552548 11.9143 1.66384
-0.552314 11.9143 1.66377
-0.552126 11.9143 1.6637
-0.552024 11.9143 1.66365
-0.55203 11.9142 1.66362
-0.552146 11.9142 1.66363
-0.552356 11.9141 1.66367
-0.552629 11.914 1.66374
-0.552931 11.914 1.66382
-0.553231 11.914 1.66389
-0.553507 11.9139 1.66395
-0.553746 11.9139 1.66399
-0.553938 11.9139 1.664
-0.554069 11.9138 1.66398
-0.554117 11.9138 1.66392
-0.554058 11.9137 1.66383
-0.553878 11.9138 1.66372
-0.553585 11.9138 1.66359
-0.553218 11.914 1.66346
-0.552829 11.9141 1.66335
-0.552482 11.9143 1.66327
-0.552225 11.9145 1.66323
-0.552085 11.9146 1.66323
-0.552064 11.9147 1.66326
-0.55215 11.9148 1.66333
-0.552315 11.9147 1.66342
-0.552527 11.9147 1.6635
-0.552752 11.9146 1.66359
-0.552963 11.9145 1.66365
-0.553134 11.9144 1.6637
-0.553256 11.9144 1.66373
-0.553333 11.9143 1.66375
-0.553374 11.9143 1.66377
-0.55339 11.9143 1.66379
-0.553392 11.9143 1.66382
-0.553388 11.9143 1.66385
-0.553389 11.9143 1.66388
-0.553401 11.9144 1.66392
-0.553428 11.9144 1.66396
-0.553468 11.9144 1.66399
-0.553509 11.9143 1.66401
-0.553537 11.9143 1.66402
-0.553538 11.9142 1.66401
-0.553505 11.9142 1.66397
-0.553442 11.9142 1.66392
-0.553351 11.9142 1.66385
-0.553239 11.9142 1.66377
-0.553119 11.9143 1.66369
-0.552993 11.9143 1.66362
-0.552872 11.9144 1.66355
-0.552764 11.9144 1.6635
-0.55268 11.9144 1.66346
-0.552633 11.9144 1.66344
-0.552636 11.9144 1.66344
-0.552693 11.9143 1.66346
-0.552794 11.9142 1.66351
-0.552926 11.9141 1.66357
-0.55307 11.914 1.66365
-0.553212 11.9139 1.66373
-0.553337 11.9138 1.66381
-0.553442 11.9138 1.66388
-0.553517 11.9137 1.66394
-0.553562 11.9137 1.66397
-0.553571 11.9137 1.66398
-0.553546 11.9137 1.66397
-0.553494 11.9138 1.66392
-0.553427 11.9139 1.66386
-0.553359 11.914 1.66379
-0.553299 11.9141 1.66373
-0.55325 11.9141 1.66369
-0.553217 11.9141 1.66366
-0.553197 11.9142 1.66365
-0.553184 11.9142 1.66365
-0.553174 11.9142 1.66365
-0.553158 11.9143 1.66365
-0.553131 11.9143 1.66364
-0.553094 11.9143 1.66362
-0.553038 11.9144 1.66359
-0.552965 11.9144 1.66356
-0.552875 11.9144 1.66353
-0.55276 11.9145 1.66349
-0.552626 11.9145 1.66345
-0.552481 11.9145 1.66341
-0.552346 11.9146 1.66339
-0.552253 11.9146 1.66338
-0.552224 11.9146 1.66341
-0.552285 11.9146 1.66347
-0.552439 11.9145 1.66356
-0.552679 11.9144 1.66367
-0.552973 11.9143 1.6638
-0.553281 11.9142 1.66393
-0.553561 11.9141 1.66404
-0.553788 11.9139 1.66413
-0.553957 11.9139 1.6642
-0.554076 11.9138 1.66425
-0.554159 11.9137 1.66429
-0.554217 11.9136 1.66432
-0.554251 11.9136 1.66434
-0.554253 11.9136 1.66434
-0.554208 11.9136 1.66433
-0.554098 11.9137 1.6643
-0.553924 11.9139 1.66424
-0.553696 11.9141 1.66416
-0.553438 11.9143 1.66406
-0.553179 11.9145 1.66395
-0.552937 11.9146 1.66384
-0.552739 11.9147 1.66374
-0.552589 11.9147 1.66366
-0.552497 11.9146 1.66361
-0.552454 11.9146 1.66359
-0.552446 11.9145 1.66358
-0.552461 11.9144 1.66358
-0.552489 11.9144 1.66358
-0.552531 11.9144 1.66359
-0.552588 11.9143 1.6636
-0.552651 11.9143 1.66361
-0.55271 11.9143 1.66364
-0.552758 11.9143 1.66367
-0.552794 11.9143 1.66369
-0.552818 11.9143 1.66372
-0.552834 11.9143 1.66374
-0.552835 11.9143 1.66375
-0.552815 11.9143 1.66374
-0.552771 11.9142 1.66371
-0.552704 11.9142 1.66366
-0.55262 11.9142 1.66361
-0.552518 11.9142 1.66354
-0.552396 11.9142 1.66348
-0.552253 11.9143 1.66341
-0.552096 11.9143 1.66334
-0.551933 11.9144 1.66327
-0.551795 11.9145 1.66321
-0.55171 11.9145 1.66318
-0.551704 11.9145 1.66317
-0.551789 11.9145 1.6632
-0.551948 11.9144 1.66325
-0.552145 11.9142 1.66333
-0.55233 11.9141 1.66341
-0.55245 11.914 1.66349
-0.55247 11.914 1.66354
-0.552375 11.914 1.66357
-0.552177 11.914 1.66357
-0.551911 11.9141 1.66355
-0.551622 11.9143 1.66352
-0.551352 11.9144 1.66349
-0.551142 11.9146 1.66347
-0.551013 11.9147 1.66346
-0.550975 11.9148 1.66346
-0.551024 11.9149 1.66346
-0.551141 11.9149 1.66348
-0.551296 11.9149 1.66352
-0.551449 11.9148 1.66357
-0.551566 11.9148 1.66362
-0.551627 11.9147 1.66366
-0.551628 11.9147 1.66367
-0.551586 11.9147 1.66367
-0.551535 11.9147 1.66365
-0.551503 11.9147 1.66363
-0.551521 11.9147 1.66362
-0.551603 11.9147 1.66361
-0.551757 11.9147 1.66362
-0.551978 11.9147 1.66365
-0.552251 11.9147 1.66369
-0.552552 11.9146 1.66375
-0.552861 11.9145 1.66383
-0.553152 11.9144 1.66392
-0.553409 11.9143 1.66401
-0.55361 11.9141 1.66409
-0.553739 11.914 1.66415
-0.553786 11.9139 1.66418
-0.553741 11.9139 1.66417
-0.553616 11.9139 1.66412
-0.553429 11.9139 1.66404
-0.553215 11.914 1.66394
-0.553009 11.9142 1.66384
-0.552838 11.9143 1.66376
-0.552728 11.9144 1.6637
-0.55269 11.9145 1.66367
-0.552732 11.9146 1.66368
-0.552851 11.9147 1.66372
-0.553026 11.9147 1.66379
-0.553227 11.9147 1.66387
-0.55342 11.9146 1.66396
-0.553564 11.9145 1.66402
-0.553636 11.9144 1.66406
-0.553625 11.9143 1.66407
-0.553534 11.9142 1.66404
-0.55339 11.9142 1.66398
-0.553224 11.9142 1.66392
-0.553072 11.9143 1.66385
-0.552957 11.9144 1.6638
-0.552898 11.9145 1.66377
-0.552892 11.9145 1.66375
-0.552934 11.9146 1.66376
-0.553012 11.9146 1.66378
-0.55311 11.9146 1.66381
-0.55321 11.9146 1.66384
-0.553305 11.9145 1.66389
-0.553393 11.9145 1.66393
-0.553476 11.9145 1.66399
-0.553555 11.9144 1.66404
-0.553618 11.9143 1.66408
-0.553658 11.9142 1.6641
-0.553663 11.9141 1.6641
-0.553625 11.914 1.66407
-0.553548 11.914 1.66402
-0.553434 11.914 1.66396
-0.553292 11.9141 1.66388
-0.553144 11.9141 1.66381
-0.553004 11.9142 1.66373
-0.552894 11.9143 1.66367
-0.552821 11.9144 1.66362
-0.552796 11.9145 1.66359
-0.552818 11.9146 1.66358
-0.552884 11.9146 1.66359
-0.552982 11.9146 1.66363
-0.553089 11.9146 1.66369
-0.553185 11.9146 1.66375
-0.553245 11.9146 1.66381
-0.553263 11.9146 1.66386
-0.553241 11.9146 1.66388
-0.553188 11.9146 1.66389
-0.553115 11.9145 1.66387
-0.553035 11.9144 1.66383
-0.552954 11.9144 1.66377
-0.552882 11.9143 1.66371
-0.552831 11.9142 1.66367
-0.552814 11.9142 1.66365
-0.552835 11.9143 1.66367
-0.55289 11.9143 1.66371
-0.55297 11.9144 1.66378
-0.553054 11.9146 1.66386
-0.553129 11.9147 1.66393
-0.55319 11.9147 1.66398
-0.553235 11.9148 1.66402
-0.553261 11.9147 1.66403
-0.553263 11.9146 1.66401
-0.553236 11.9145 1.66397
-0.553177 11.9144 1.66391
-0.55308 11.9142 1.66383
-0.552953 11.9141 1.66374
-0.552808 11.9141 1.66365
-0.552675 11.914 1.66357
-0.55258 11.914 1.66351
-0.552549 11.914 1.66348
-0.552596 11.9141 1.66349
-0.55272 11.9141 1.66354
-0.552905 11.9141 1.66362
-0.553126 11.9141 1.66372
-0.553358 11.9141 1.66383
-0.553568 11.914 1.66393
-0.553729 11.9141 1.66401
-0.553826 11.9141 1.66406
-0.553849 11.9141 1.66409
-0.553804 11.9142 1.66408
-0.553691 11.9142 1.66403
-0.553516 11.9143 1.66396
-0.553285 11.9144 1.66386
-0.553008 11.9145 1.66374
-0.552703 11.9145 1.66361
-0.552395 11.9146 1.66347
-0.552113 11.9146 1.66334
-0.551888 11.9146 1.66324
-0.551739 11.9145 1.66317
-0.551676 11.9144 1.66313
-0.551686 11.9143 1.66312
-0.551756 11.9142 1.66312
-0.551858 11.9141 1.66314
-0.551961 11.914 1.66315
-0.55204 11.914 1.66314
-0.552083 11.914 1.66311
-0.552092 11.9141 1.66306
-0.552089 11.9141 1.66303
-0.552109 11.9142 1.66304
-0.552176 11.9143 1.66312
-0.552307 11.9143 1.66333
-0.552498 11.9143 1.66368
-0.552732 11.9144 1.66419
-0.552982 11.9143 1.66486
-0.553216 11.9143 1.66563
-0.553405 11.9143 1.66641
-0.553518 11.9143 1.66706
-0.553528 11.9143 1.6674
-0.553417 11.9142 1.66722
-0.553171 11.9141 1.66635
-0.552775 11.9139 1.66468
-0.552225 11.9137 1.66225
-0.551544 11.9135 1.65936
-0.550798 11.9135 1.65661
-0.550118 11.914 1.65504
-0.549702 11.9152 1.6561
-0.549829 11.9175 1.66164
-0.550849 11.9211 1.6738
-0.553168 11.9266 1.69483
-0.557228 11.9343 1.72688
-0.563527 11.9446 1.77181
-0.572637 11.958 1.83113
-0.585214 11.975 1.90598
-0.601998 11.9958 1.99709
-0.623791 12.0208 2.10489
-0.651421 12.0499 2.22938
-0.685685 12.0832 2.37022
-0.727285 12.1202 2.52661
-0.776762 12.1607 2.69742
-0.834459 12.2041 2.88128
-0.900524 12.2498 3.07664
-0.974952 12.2971 3.28188
-1.05761 12.3455 3.49529
-1.14829 12.394 3.71506
-1.24669 12.4421 3.93924
-1.35244 12.4891 4.16579
-1.46516 12.5344 4.39269
-1.58443 12.5775 4.61802
-1.70987 12.6178 4.84007
-1.84106 12.6549 5.05743
-1.97763 12.6883 5.26901
-2.11917 12.7178 5.47401
-2.2653 12.7429 5.67189
-2.41559 12.7635 5.8623
-2.5696 12.7794 6.04503
-2.72676 12.7906 6.21998
-2.88643 12.7972 6.38705
-3.04785 12.7992 6.5462
-3.21012 12.7968 6.69738
-3.37229 12.7902 6.84059
-3.53333 12.7795 6.97588
-3.69222 12.7647 7.10333
-3.84793 12.7461 7.22306
-3.99952 12.7236 7.33517
-4.14614 12.6974 7.43972
-4.28706 12.6674 7.53674
-4.42171 12.6339 7.6262
-4.54967 12.597 7.70802
-4.67072 12.5567 7.7821
-4.78479 12.5134 7.84829
-4.89196 12.4671 7.90648
-4.99249 12.4183 7.95658
-5.08677 12.3669 7.99864
-5.17533 12.3133 8.0328
-5.25882 12.2577 8.05933
-5.33798 12.2 8.07858
-5.41363 12.1404 8.09095
-5.48661 12.079 8.09682
-5.55776 12.0157 8.09661
-5.62788 11.9505 8.09066
-5.6977 11.8836 8.07934
-5.76782 11.815 8.06295
-5.83875 11.7447 8.04185
-5.91084 11.6729 8.01648
-5.98439 11.5997 7.98736
-6.05958 11.5253 7.95518
-6.13655 11.4499 7.92072
-6.21536 11.3736 7.88486
-6.29607 11.2967 7.84853
-6.37863 11.2193 7.81265
-6.46299 11.1415 7.77808
-6.54899 11.0635 7.74562
-6.63647 10.9856 7.71596
-6.72526 10.9078 7.68966
-6.81518 10.8304 7.66718
-6.90614 10.7536 7.64876
-6.99803 10.6775 7.63448
-7.09082 10.6023 7.62424
-7.18448 10.5281 7.61772
-7.27896 10.4549 7.61456
-7.37418 10.3827 7.61432
-7.47004 10.3118 7.61661
-7.56643 10.242 7.62115
-7.66322 10.1735 7.62775
-7.76028 10.1064 7.63628
-7.85747 10.0404 7.6467
-7.95468 9.97557 7.65896
-8.0518 9.91174 7.67301
-8.14875 9.84872 7.68874
-8.2455 9.78634 7.70596
-8.34206 9.72444 7.7244
-8.43843 9.66291 7.74364
-8.53462 9.60171 7.76316
-8.63066 9.54083 7.78238
-8.72656 9.48028 7.80071
-8.82234 9.42008 7.81756
-8.91804 9.36023 7.83249
-9.01367 9.30072 7.84518
-9.10923 9.24151 7.85552
-9.20472 9.1826 7.86363
-9.30009 9.12392 7.86984
-9.39528 9.06545 7.87464
-9.49021 9.0072 7.87859
-9.58475 8.94923 7.88226
-9.67873 8.8917 7.88618
-9.77196 8.83486 7.89081
-9.86425 8.77902 7.89658
-9.95547 8.72453 7.90387
-10.0455 8.67173 7.91307
-10.1344 8.62096 7.92451
-10.222 8.57255 7.93844
-10.3085 8.52685 7.95504
-10.3939 8.48417 7.9744
-10.4781 8.4448 7.99654
-10.5612 8.40895 8.02145
-10.6432 8.37678 8.04912
-10.7241 8.34832 8.0795
-10.804 8.32356 8.11252
-10.8831 8.30246 8.14807
-10.9613 8.28491 8.186
-11.0389 8.27081 8.2261
-11.1158 8.26004 8.26816
-11.1922 8.25246 8.31193
-11.2681 8.24792 8.3572
-11.3435 8.24627 8.40369
-11.4184 8.24735 8.45117
-11.4927 8.251 8.49938
-11.5667 8.25705 8.54809
-11.6401 8.26536 8.5971
-11.7131 8.27578 8.64626
-11.7857 8.28814 8.69554
-11.8579 8.3023 8.74497
-11.9296 8.31813 8.79463
-12.0008 8.33553 8.84462
-12.0714 8.35444 8.89504
-12.1412 8.37485 8.94592
-12.2103 8.39681 8.99724
-12.2783 8.42037 9.04893
-12.3454 8.44558 9.10087
-12.4112 8.47249 9.15294
-12.4758 8.50121 9.20502
-12.5391 8.5318 9.257
-12.6009 8.56438 9.3088
-12.6611 8.599 9.36032
-12.7196 8.63572 9.41145
-12.7764 8.6746 9.46202
-12.8314 8.71567 9.5118
-12.8845 8.75899 9.56053
-12.9355 8.80457 9.60787
-12.9845 8.85241 9.65347
-13.0315 8.90247 9.697
-13.0764 8.95471 9.73817
-13.1192 9.00905 9.7768
-13.16 9.06543 9.81283
-13.1988 9.12377 9.84636
-13.2355 9.184 9.87759
-13.2702 9.24607 9.90684
-13.303 9.30994 9.93444
-13.3338 9.37561 9.9607
-13.3625 9.4431 9.98587
-13.3892 9.51242 10.0101
-13.4138 9.58359 10.0335
-13.4363 9.65658 10.056
-13.4566 9.73132 10.0777
-13.4749 9.80772 10.0985
-13.4911 9.88561 10.1185
-13.5053 9.96484 10.1378
-13.5176 10.0452 10.1565
-13.528 10.1266 10.1749
-13.5365 10.209 10.1932
-13.5434 10.2921 10.2116
-13.5487 10.3761 10.2302
-13.5525 10.4609 10.2493
-13.5549 10.5466 10.2688
-13.5562 10.6332 10.2887
-13.5565 10.7207 10.3088
-13.5558 10.8093 10.3291
-13.5545 10.899 10.3494
-13.5526 10.99 10.3697
-13.5504 11.0823 10.3901
-13.5481 11.176 10.4104
-13.5459 11.2711 10.4309
-13.5441 11.3676 10.4515
-13.5428 11.4655 10.4722
-13.5424 11.5647 10.4929
-13.5431 11.6651 10.5136
-13.5451 11.7665 10.5341
-13.5487 11.8687 10.5542
-13.5541 11.9715 10.5736
-13.5615 12.0747 10.5921
-13.5711 12.1778 10.6096
-13.5833 12.2806 10.6259
-13.598 12.3828 10.6409
-13.6156 12.4839 10.6548
-13.6361 12.5839 10.6677
-13.6595 12.6823 10.6796
-13.6859 12.7791 10.6908
-13.7151 12.8743 10.7014
-13.7473 12.9677 10.7118
-13.7824 13.0595 10.7219
-13.8203 13.15 10.7319
-13.8611 13.2393 10.7418
-13.9048 13.328 10.7515
-13.9511 13.4166 10.7609
-14.0001 13.506 10.7699
-14.0517 13.5968 10.7787
-14.1057 13.6899 10.7872
-14.1621 13.7861 10.7956
-14.2209 13.8861 10.8038
-14.282 13.9908 10.8118
-14.3454 14.1007 10.8196
-14.411 14.2163 10.8268
-14.4789 14.338 10.8332
-14.5488 14.466 10.8386
-14.6206 14.6004 10.8427
-14.694 14.7409 10.8456
-14.7689 14.8874 10.8474
-14.8448 15.0394 10.8485
-14.9214 15.1966 10.8494
-14.9981 15.3583 10.8504
-15.0744 15.524 10.8523
-15.1496 15.6932 10.8551
-15.223 15.8652 10.8591
-15.2939 16.0395 10.864
-15.3618 16.2155 10.8695
-15.4261 16.3925 10.8752
-15.4862 16.57 10.8803
-15.542 16.7475 10.8845
-15.5931 16.9245 10.8873
-15.6394 17.1007 10.8887
-15.6808 17.2757 10.8885
-15.7174 17.4493 10.8869
-15.7498 17.6211 10.8842
-15.7784 17.7911 10.8806
-15.8039 17.959 10.8762
-15.827 18.1248 10.8712
-15.8485 18.2883 10.8657
-15.8689 18.4498 10.8599
-15.8885 18.6092 10.8537
-15.9075 18.7667 10.8473
-15.9262 18.9225 10.8407
-15.9444 19.0767 10.8341
-15.9622 19.2293 10.8276
-15.9797 19.3803 10.8212
-15.9967 19.5297 10.815
-16.0131 19.6776 10.809
-16.029 19.8237 10.8032
-16.0441 19.9681 10.7977
-16.0582 20.1105 10.7924
-16.0713 20.2507 10.7875
-16.0832 20.3886 10.783
-16.0937 20.524 10.7793
-16.1028 20.6565 10.7763
-16.1106 20.7861 10.7743
-16.1169 20.9127 10.7731
-16.1218 21.0362 10.7728
-16.1251 21.1564 10.7731
-16.1269 21.2734 10.774
-16.127 21.3871 10.7752
-16.1251 21.4973 10.7767
-16.1211 21.604 10.7783
-16.115 21.7069 10.7802
-16.1065 21.806 10.7822
-16.0957 21.9009 10.7844
-16.0824 21.9911 10.787
-16.0668 22.0764 10.79
-16.0491 22.1563 10.7937
-16.0295 22.2304 10.7983
-16.0086 22.2985 10.8039
-15.9867 22.3605 10.8105
-15.9643 22.4161 10.8181
-15.9418 22.4651 10.8267
-15.9196 22.5072 10.8361
-15.898 22.5424 10.8462
-15.8773 22.5703 10.8569
-15.8577 22.5909 10.868
-15.8393 22.604 10.8793
-15.8221 22.6093 10.8909
-15.8064 22.6065 10.9023
-15.7924 22.5954 10.9135
-15.7804 22.5754 10.9242
-15.7707 22.5463 10.9344
-15.7638 22.5081 10.944
-15.7599 22.4605 10.9531
-15.7595 22.4035 10.9619
-15.7626 22.3371 10.9707
-15.7694 22.261 10.9797
-15.78 22.1752 10.9888
-15.7945 22.0793 10.9979
-15.8131 21.9731 11.0067
-15.836 21.8561 11.015
-15.863 21.7282 11.0222
-15.894 21.5889 11.0281
-15.9289 21.4381 11.0323
-15.9672 21.2754 11.0345
-16.0085 21.1009 11.0347
-16.0522 20.9144 11.0327
-16.0977 20.7162 11.0286
-16.1446 20.5066 11.0227
-16.1921 20.286 11.0152
-16.2399 20.0551 11.0065
-16.2875 19.8148 10.9971
-16.3346 19.5657 10.9875
-16.3809 19.3089 10.9781
-16.4266 19.0451 10.9691
-16.4715 18.7751 10.9608
-16.5159 18.4999 10.9532
-16.56 18.2199 10.9461
-16.6043 17.9358 10.9395
-16.649 17.648 10.933
-16.6945 17.3572 10.9265
-16.741 17.0636 10.9197
-16.7887 16.7679 10.9127
-16.8376 16.4703 10.9053
-16.8879 16.1714 10.8975
-16.9396 15.8717 10.8895
-16.9929 15.5716 10.8813
-17.0479 15.2716 10.8732
-17.1047 14.9721 10.8652
-17.1638 14.6734 10.8574
-17.2252 14.376 10.85
-17.2894 14.0803 10.8429
-17.3566 13.7865 10.8363
-17.4272 13.4949 10.83
-17.5015 13.206 10.824
-17.5799 12.9198 10.8183
-17.6628 12.6367 10.8125
-17.7506 12.3566 10.8068
-17.8436 12.0796 10.8007
-17.9421 11.8056 10.7943
-18.0461 11.5346 10.7872
-18.1557 11.2663 10.7793
-18.2705 11.0006 10.7702
-18.3904 10.7372 10.7595
-18.5148 10.4757 10.7472
-18.6432 10.2156 10.7329
-18.7747 9.95662 10.7165
-18.9087 9.6983 10.6982
-19.044 9.44032 10.6782
-19.1797 9.18242 10.6568
-19.3145 8.92442 10.6344
-19.4473 8.66624 10.6115
-19.5769 8.40791 10.5888
-19.7021 8.14953 10.5666
-19.8217 7.89123 10.5453
-19.9347 7.63319 10.5253
-20.0405 7.37557 10.5066
-20.1383 7.11852 10.4893
-20.2279 6.86222 10.4732
-20.309 6.60679 10.4584
-20.3816 6.35233 10.4448
-20.4461 6.09892 10.4323
-20.5025 5.8466 10.421
-20.5515 5.59538 10.4108
-20.5935 5.34523 10.4016
-20.6293 5.09605 10.3933
-20.6595 4.84767 10.3858
-20.6849 4.59986 10.3788
-20.7064 4.35237 10.3722
-20.7248 4.10489 10.366
-20.7407 3.85712 10.3599
-20.755 3.6087 10.3539
-20.7682 3.35923 10.348
-20.7809 3.10828 10.342
-20.7937 2.85545 10.336
-20.8069 2.60035 10.3298
-20.8208 2.34263 10.3233
-20.8358 2.082 10.3165
-20.852 1.81819 10.3095
-20.8699 1.55097 10.3021
-20.8895 1.28017 10.2943
-20.9111 1.00569 10.2862
-20.9348 0.727504 10.2777
-20.9607 0.445612 10.2687
-20.9891 0.160067 10.2592
-21.0198 -0.129034 10.249
-21.053 -0.421523 10.238
-21.0884 -0.717159 10.2263
-21.1258 -1.01564 10.2137
-21.165 -1.3166 10.2002
-21.2054 -1.61963 10.1858
-21.2466 -1.92428 10.1706
-21.288 -2.23003 10.1546
-21.3288 -2.53638 10.1381
-21.3683 -2.84278 10.1213
-21.4058 -3.14874 10.1044
-21.4405 -3.45378 10.0878
-21.4716 -3.75751 10.0719
-21.4987 -4.05962 10.0568
-21.5211 -4.35989 10.0428
-21.5387 -4.65823 10.03
-21.5515 -4.95466 10.0184
-21.5595 -5.24929 10.0079
-21.5631 -5.54226 9.99833
-21.5625 -5.83373 9.98937
-21.5582 -6.12384 9.98078
-21.5506 -6.41271 9.97233
-21.54 -6.70046 9.96382
-21.5268 -6.98717 9.95518
-21.511 -7.27299 9.94644
-21.4929 -7.55802 9.93775
-21.4725 -7.84243 9.92932
-21.4497 -8.12633 9.92142
-21.4246 -8.40983 9.91425
-21.3969 -8.693 9.90799
-21.3665 -8.97588 9.90272
-21.3333 -9.25844 9.89848
-21.2969 -9.54068 9.89527
-21.2572 -9.82263 9.89302
-21.2139 -10.1044 9.8916
-21.1668 -10.3861 9.89084
-21.1156 -10.6679 9.89047
-21.0603 -10.9499 9.89018
-21.0004 -11.232 9.88964
-20.9358 -11.5142 9.88857
-20.8662 -11.796 9.88677
-20.7912 -12.0772 9.8842
-20.7104 -12.3573 9.88095
-20.6236 -12.6358 9.87719
-20.5301 -12.9122 9.87316
-20.4296 -13.1857 9.86912
-20.3215 -13.4559 9.86537
-20.2051 -13.7221 9.86224
-20.0798 -13.9836 9.86006
-19.9449 -14.2395 9.85919
-19.7996 -14.4889 9.85996
-19.6435 -14.7304 9.86268
-19.476 -14.9631 9.86758
-19.2969 -15.1855 9.87479
-19.1063 -15.3969 9.88434
-18.9043 -15.5964 9.89617
-18.6916 -15.7839 9.91011
-18.4687 -15.9596 9.92597
-18.2363 -16.1239 9.94361
-17.9951 -16.2772 9.96296
-17.746 -16.4196 9.98404
-17.49 -16.5511 10.0069
-17.2281 -16.6716 10.0314
-16.9618 -16.7812 10.0576
-16.6924 -16.8798 10.0853
-16.4213 -16.9678 10.1143
-16.1495 -17.0453 10.1442
-15.8781 -17.1129 10.1747
-15.6077 -17.1707 10.2052
-15.3387 -17.2189 10.2354
-15.0715 -17.2573 10.2648
-14.8062 -17.2852 10.2932
-14.5431 -17.3019 10.3204
-14.2824 -17.3063 10.3466
-14.0247 -17.2973 10.3717
-13.7702 -17.2739 10.3959
-13.5194 -17.2352 10.4194
-13.2724 -17.1805 10.4423
-13.0292 -17.1092 10.4649
-12.7898 -17.0206 10.4872
-12.554 -16.9145 10.5095
-12.3216 -16.7905 10.5318
-12.0923 -16.6482 10.5539
-11.8657 -16.4875 10.5758
-11.6416 -16.3084 10.5973
-11.4196 -16.1109 10.6182
-11.1997 -15.8953 10.6382
-10.9818 -15.6619 10.6571
-10.766 -15.4112 10.6745
-10.5523 -15.1438 10.6901
-10.3407 -14.8602 10.7036
-10.1315 -14.561 10.7143
-9.92455 -14.2464 10.7216
-9.72021 -13.9171 10.7249
-9.51864 -13.5732 10.7234
-9.32005 -13.2151 10.7163
-9.12462 -12.8431 10.7029
-8.93253 -12.4573 10.6827
-8.74395 -12.0583 10.6553
-8.5591 -11.6464 10.6205
-8.37825 -11.2223 10.5783
-8.20171 -10.7866 10.5287
-8.02981 -10.3402 10.4718
-7.86285 -9.88415 10.4076
-7.701 -9.41947 10.3365
-7.54441 -8.94736 10.2589
-7.39318 -8.4691 10.1752
-7.24746 -7.98607 10.0863
-7.10742 -7.49972 9.99333
-6.97322 -7.01152 9.89772
-6.84497 -6.52291 9.80096
-6.72269 -6.03529 9.70459
-6.6063 -5.54997 9.6101
-6.4956 -5.06818 9.51883
-6.39022 -4.59096 9.43189
-6.28965 -4.11916 9.35008
-6.19323 -3.65339 9.2738
-6.10016 -3.19398 9.20313
-6.00958 -2.74104 9.13785
-5.92056 -2.29451 9.07753
-5.83211 -1.8542 9.02163
-5.74329 -1.41986 8.96956
-5.65322 -0.991196 8.92077
-5.56103 -0.567855 8.87477
-5.46596 -0.149491 8.83114
-5.36731 0.264214 8.78959
-5.26454 0.67353 8.74989
-5.15723 1.07869 8.71185
-5.04512 1.47993 8.67527
-4.92808 1.87746 8.63995
-4.80609 2.27154 8.60565
-4.67921 2.6624 8.57214
-4.5476 3.05029 8.53916
-4.4115 3.43548 8.50642
-4.27124 3.81821 8.47365
-4.12718 4.19872 8.44061
-3.97971 4.57722 8.40717
-3.82919 4.95384 8.37334
-3.676 5.3287 8.33928
-3.52047 5.70179 8.30529
-3.36295 6.07308 8.27176
-3.20375 6.44242 8.23911
-3.04314 6.80962 8.20777
-2.8813 7.1744 8.17808
-2.71836 7.53648 8.1503
-2.55437 7.89558 8.12456
-2.38933 8.25146 8.10088
-2.2232 8.60392 8.07914
-2.05594 8.95285 8.05909
-1.88745 9.29818 8.04038
-1.71764 9.6399 8.02259
-1.54643 9.97804 8.00527
-1.37374 10.3127 7.98807
-1.19951 10.644 7.97074
-1.02374 10.9721 7.95326
-0.846442 11.2972 7.93574
-0.667695 11.6196 7.91842
-0.487626 11.9395 7.90156
-0.306432 12.2572 7.88538
-0.124334 12.5729 7.86998
0.0584493 12.887 7.85531
0.24173 13.1997 7.84118
0.425331 13.5114 7.8273
0.609038 13.8223 7.81336
0.792552 14.1328 7.79908
0.975471 14.4431 7.78429
1.15729 14.7534 7.76891
1.33744 15.0636 7.75297
1.51537 15.374 7.73661
1.69055 15.6845 7.72003
1.86253 15.9952 7.70357
2.03094 16.3061 7.68758
2.19551 16.6173 7.67246
2.35612 16.9289 7.65854
2.51269 17.2413 7.64603
2.66526 17.5546 7.63505
2.81392 17.8692 7.62558
2.95879 18.1856 7.61752
3.09997 18.5042 7.6107
3.2375 18.8254 7.60495
3.37135 19.1498 7.60006
3.50145 19.4776 7.59583
3.62766 19.8094 7.59202
3.74979 20.1453 7.58841
3.86763 20.4857 7.5848
3.9809 20.8307 7.58098
4.08929 21.1805 7.57678
4.1925 21.5349 7.57206
4.29029 21.8938 7.56668
4.38242 22.2571 7.56056
4.46876 22.6246 7.55365
4.5492 22.9959 7.54604
4.62369 23.3706 7.5379
4.6923 23.7483 7.52952
4.7551 24.1287 7.52123
4.81225 24.5113 7.51341
4.8639 24.8957 7.50639
4.91021 25.2814 7.50048
4.95131 25.668 7.4959
4.98733 26.0548 7.4927
5.01837 26.4415 7.4908
5.04449 26.8275 7.48995
5.06576 27.2122 7.4898
5.08221 27.5953 7.4899
5.09389 27.9763 7.48983
5.10083 28.3549 7.4892
5.10303 28.7309 7.48772
5.10048 29.1041 7.48522
5.09314 29.4745 7.48168
5.08094 29.842 7.47723
5.06379 30.2069 7.47213
5.04158 30.5691 7.46672
5.01418 30.9287 7.46142
4.98146 31.2857 7.45665
4.94329 31.6398 7.45274
4.89957 31.9907 7.44993
4.85021 32.3381 7.4483
4.79517 32.6816 7.44773
4.73444 33.0207 7.44798
4.66804 33.355 7.44877
4.59608 33.6841 7.44981
4.51873 34.0075 7.45088
4.43626 34.3246 7.45185
4.34908 34.6346 7.45264
4.25769 34.9366 7.45322
4.16268 35.2296 7.45362
4.06469 35.5125 7.45388
3.96437 35.7842 7.45414
3.86241 36.0433 7.45459
3.75955 36.2886 7.45556
3.65664 36.5187 7.45746
3.55459 36.7325 7.46075
3.45432 36.9287 7.46584
3.35669 37.1065 7.47304
3.26224 37.2653 7.48252
3.1712 37.405 7.49436
3.08334 37.5254 7.50852
2.99801 37.6271 7.52484
2.91419 37.7108 7.54307
2.83066 37.7774 7.56286
2.74603 37.828 7.58373
2.65885 37.864 7.60516
2.56772 37.8864 7.62659
2.4713 37.8966 7.64749
2.36847 37.8957 7.6674
2.25836 37.8847 7.68599
2.14044 37.8642 7.70301
2.01449 37.8349 7.71837
1.88058 37.7972 7.73208
1.73902 37.7514 7.74426
1.59038 37.6977 7.75514
1.43541 37.6361 7.76505
1.27508 37.5667 7.7744
1.1105 37.4897 7.78366
0.94281 37.4048 7.79332
0.773123 37.3123 7.80386
0.60238 37.2119 7.8157
0.431338 37.1036 7.82914
0.260557 36.9874 7.84434
0.0904504 36.8632 7.86136
-0.0786924 36.7311 7.88012
-0.24667 36.5911 7.90049
-0.413356 36.4434 7.92227
-0.578684 36.2882 7.94528
-0.742664 36.1258 7.96942
-0.905399 35.9568 7.99469
-1.06706 35.7815 8.02127
-1.22786 35.6005 8.04942
-1.388 35.4144 8.0795
-1.54763 35.2236 8.11192
-1.70685 35.0285 8.14709
-1.8657 34.8295 8.1854
-2.02417 34.6269 8.22726
-2.18221 34.4208 8.27304
-2.33981 34.2113 8.32312
-2.497 33.9985 8.37784
-2.65385 33.7823 8.43751
-2.81047 33.5628 8.50234
-2.96699 33.3398 8.5724
-3.12363 33.1133 8.64761
-3.28062 32.8834 8.72773
-3.43826 32.6501 8.8124
-3.59689 32.4133 8.9012
-3.75689 32.1732 8.99376
-3.91857 31.93 9.08973
-4.08219 31.6837 9.18887
-4.24792 31.4347 9.29096
-4.4158 31.1832 9.39575
-4.5859 30.9297 9.5029
-4.75829 30.6744 9.6119
-4.93312 30.4179 9.72209
-5.11056 30.1606 9.83265
-5.29081 29.9028 9.9427
-5.47404 29.6451 10.0513
-5.66034 29.3879 10.1576
-5.84978 29.1316 10.2609
-6.04233 28.8768 10.3602
-6.23793 28.6238 10.455
-6.43647 28.373 10.5448
-6.63774 28.1247 10.629
-6.84157 27.8791 10.7073
-7.0477 27.6361 10.7796
-7.25586 27.3958 10.8457
-7.46571 27.158 10.9057
-7.67685 26.9225 10.9598
-7.88872 26.6889 11.0084
-8.10062 26.4571 11.0521
-8.31173 26.2266 11.0915
-8.52117 25.9973 11.1274
-8.72805 25.7691 11.1608
-8.93153 25.5417 11.1922
-9.1309 25.3149 11.2222
-9.32549 25.0887 11.2514
-9.51474 24.8627 11.2799
-9.69814 24.6368 11.3078
-9.87522 24.4107 11.3353
-10.0456 24.1842 11.3622
-10.2088 23.957 11.3887
-10.3647 23.7289 11.4151
-10.5131 23.4997 11.4417
-10.654 23.269 11.4688
-10.7875 23.0367 11.4969
-10.9141 22.8025 11.5262
-11.0345 22.5661 11.5572
-11.1493 22.3273 11.5898
-11.2597 22.0859 11.624
-11.3667 21.8416 11.6596
-11.4714 21.5943 11.6963
-11.5746 21.3441 11.7335
-11.6773 21.0909 11.7706
-11.7804 20.8349 11.8072
-11.8848 20.5763 11.8426
-11.9912 20.3152 11.8766
-12.1003 20.0521 11.909
-12.2127 19.7872 11.9398
-12.329 19.5208 11.9691
-12.4495 19.2532 11.9971
-12.5746 18.9849 12.0241
-12.7046 18.716 12.0502
-12.8396 18.4468 12.0755
-12.9799 18.1773 12.0999
-13.1253 17.9076 12.1231
-13.2758 17.6376 12.145
-13.4309 17.3673 12.1651
-13.5901 17.0965 12.1832
-13.7527 16.8251 12.199
-13.9176 16.553 12.2121
-14.0839 16.2798 12.2224
-14.2502 16.0054 12.2297
-14.4152 15.7296 12.2342
-14.5775 15.4522 12.2358
-14.7355 15.1731 12.2348
-14.8878 14.8923 12.2316
-15.0329 14.6098 12.2266
-15.1695 14.3258 12.2203
-15.2964 14.0403 12.2135
-15.4129 13.7536 12.2069
-15.5186 13.4656 12.2012
-15.6133 13.1765 12.1972
-15.6973 12.8863 12.1959
-15.7711 12.5949 12.1977
-15.8355 12.3025 12.2034
-15.8915 12.0089 12.2131
-15.9402 11.7142 12.2272
-15.9829 11.4185 12.2456
-16.0208 11.1219 12.2682
-16.055 10.8244 12.2946
-16.0868 10.5263 12.3246
-16.1171 10.2277 12.3576
-16.1469 9.92867 12.3932
-16.177 9.62934 12.4307
-16.208 9.32983 12.4698
-16.2405 9.03022 12.51
-16.2748 8.73055 12.5508
-16.3114 8.43079 12.5917
-16.3504 8.13092 12.6325
-16.392 7.83084 12.6728
-16.4362 7.53046 12.7123
-16.4829 7.22969 12.7508
-16.5319 6.92844 12.7883
-16.5831 6.62666 12.8247
-16.6358 6.3243 12.8599
-16.6898 6.02135 12.894
-16.7445 5.71784 12.927
-16.7994 5.41386 12.9589
-16.854 5.10961 12.9898
-16.908 4.80538 13.0199
-16.9611 4.50161 13.0494
-17.0129 4.19877 13.0784
-17.0635 3.89742 13.1072
-17.1126 3.59816 13.1358
-17.1602 3.30161 13.1642
-17.2064 3.00842 13.1922
-17.2511 2.71917 13.2195
-17.2947 2.43438 13.2458
-17.3374 2.15452 13.2707
-17.3794 1.8799 13.2939
-17.4211 1.61073 13.3151
-17.4627 1.34706 13.3342
-17.5043 1.08875 13.3509
-17.5462 0.835518 13.365
-17.5885 0.586904 13.3763
-17.6309 0.34235 13.3845
-17.6734 0.101235 13.3896
-17.7156 -0.137069 13.3915
-17.7571 -0.373152 13.3902
-17.7973 -0.607541 13.3861
-17.8354 -0.840697 13.3794
-17.8708 -1.073 13.3703
-17.9028 -1.30473 13.3594
-17.9305 -1.53609 13.3467
-17.9533 -1.76715 13.3327
-17.9705 -1.99794 13.3174
-17.9816 -2.22842 13.3012
-17.9863 -2.45855 13.2841
-17.9842 -2.68829 13.2662
-17.9752 -2.91757 13.2478
-17.9595 -3.14634 13.2291
-17.937 -3.37451 13.2102
-17.9081 -3.60195 13.1913
-17.8731 -3.82851 13.1726
-17.8325 -4.05401 13.1543
-17.7868 -4.27828 13.1367
-17.7367 -4.50116 13.12
-17.6826 -4.72247 13.1044
-17.6252 -4.94207 13.0903
-17.5649 -5.15982 13.0777
-17.502 -5.37557 13.0667
-17.4371 -5.58918 13.0574
-17.3703 -5.80057 13.0496
-17.3019 -6.00969 13.0432
-17.2321 -6.21656 13.0378
-17.161 -6.42126 13.0334
-17.0888 -6.62387 13.0294
-17.0155 -6.82449 13.0258
-16.9412 -7.02323 13.0223
-16.8658 -7.22025 13.0188
-16.7894 -7.4157 13.015
-16.712 -7.60974 13.011
-16.6335 -7.80251 13.0068
-16.5539 -7.99412 13.0025
-16.4732 -8.18469 12.9983
-16.3915 -8.37435 12.9943
-16.3089 -8.56326 12.9908
-16.2257 -8.75166 12.988
-16.142 -8.9398 12.9861
-16.0584 -9.12792 12.9853
-15.9749 -9.31622 12.9859
-15.892 -9.50483 12.988
-15.8098 -9.69387 12.9918
-15.7287 -9.88341 12.9973
-15.6487 -10.0736 13.0045
-15.57 -10.2644 13.013
-15.4928 -10.456 13.0228
-15.417 -10.6482 13.0337
-15.3426 -10.8411 13.0454
-15.2695 -11.0344 13.0579
-15.1976 -11.228 13.071
-15.1268 -11.4217 13.0846
-15.0571 -11.6154 13.0986
-14.9882 -11.809 13.1131
-14.9201 -12.0024 13.1281
-14.8524 -12.1956 13.1439
-14.7849 -12.3886 13.1608
-14.7172 -12.5811 13.1791
-14.649 -12.773 13.1989
-14.5796 -12.964 13.2203
-14.5086 -13.1538 13.2433
-14.4354 -13.342 13.2678
-14.3592 -13.5281 13.2938
-14.2794 -13.7114 13.3207
-14.1954 -13.8914 13.3482
-14.1065 -14.0672 13.3754
-14.0122 -14.2381 13.4015
-13.9121 -14.4031 13.4253
-13.8058 -14.5614 13.4456
-13.6931 -14.7121 13.4609
-13.5737 -14.8544 13.4698
-13.4476 -14.9876 13.471
-13.3149 -15.1108 13.4632
-13.1757 -15.2235 13.4451
-13.0302 -15.325 13.416
-12.8786 -15.415 13.3752
-12.7213 -15.4929 13.3222
-12.5584 -15.5586 13.2572
-12.3904 -15.612 13.1803
-12.2173 -15.6527 13.0924
-12.0396 -15.6808 12.9943
-11.8574 -15.6959 12.887
-11.6712 -15.698 12.7716
-11.4813 -15.6871 12.6487
-11.2879 -15.6634 12.5189
-11.0912 -15.6272 12.382
-10.8913 -15.5791 12.2378
-10.688 -15.5195 12.0858
-10.4813 -15.4493 11.9254
-10.2713 -15.3689 11.7562
-10.0578 -15.2787 11.5783
-9.84103 -15.1793 11.392
-9.62094 -15.0709 11.1981
-9.39765 -14.9536 10.9978
-9.17132 -14.8276 10.793
-8.94219 -14.6926 10.5859
-8.71054 -14.5484 10.3788
-8.47665 -14.3949 10.1744
-8.24072 -14.2318 9.97512
-8.00284 -14.0589 9.78321
-7.76292 -13.876 9.60063
-7.52078 -13.6831 9.42887
-7.27613 -13.4803 9.26897
-7.02865 -13.2679 9.12156
-6.77797 -13.0464 8.9869
-6.52374 -12.8165 8.86501
-6.26562 -12.579 8.75572
-6.00338 -12.3353 8.65869
-5.7369 -12.0864 8.57341
-5.46618 -11.834 8.49913
-5.19136 -11.5794 8.43479
-4.91276 -11.3242 8.37899
-4.63092 -11.0697 8.33005
-4.34661 -10.8171 8.28624
-4.06077 -10.5674 8.24596
-3.77441 -10.3214 8.20796
-3.48841 -10.0796 8.1715
-3.20342 -9.84242 8.13633
-2.91986 -9.61009 8.10259
-2.63797 -9.38262 8.07065
-2.35787 -9.15993 8.0409
-2.07947 -8.94186 8.01369
-1.80246 -8.72817 7.98933
-1.52629 -8.51854 7.96804
-1.25019 -8.3126 7.95002
-0.973334 -8.10988 7.93533
-0.694863 -7.90987 7.92385
-0.413902 -7.71197 7.91514
-0.129561 -7.51547 7.90846
0.159015 -7.31954 7.9028
0.452509 -7.12325 7.89695
0.75128 -6.92558 7.88965
1.05528 -6.72547 7.8797
1.36406 -6.52188 7.86608
1.67682 -6.31378 7.84794
1.99253 -6.1002 7.82472
2.30994 -5.88026 7.79606
2.62761 -5.65321 7.76189
2.94393 -5.41841 7.72235
3.25717 -5.17537 7.67791
3.56554 -4.92375 7.6293
3.86738 -4.66331 7.57753
4.16126 -4.39388 7.52382
4.44614 -4.11529 7.46937
4.72143 -3.82738 7.41523
4.98695 -3.52993 7.36205
5.24289 -3.22274 7.31004
5.48975 -2.90557 7.25912
5.72832 -2.5782 7.20901
5.95955 -2.24034 7.15947
6.18455 -1.89164 7.1104
6.40455 -1.53167 7.06192
6.62074 -1.15996 7.01432
6.83434 -0.775986 6.96799
7.04641 -0.379293 6.92341
7.25788 0.030493 6.88092
7.46946 0.453613 6.84068
7.68165 0.890152 6.80257
7.89477 1.34004 6.76619
8.10899 1.80307 6.73101
8.3244 2.2789 6.69649
8.54102 2.76706 6.66225
8.75881 3.26694 6.62818
8.97766 3.77777 6.59443
9.19739 4.29863 6.5614
9.41777 4.82848 6.52954
9.63858 5.36619 6.49928
9.85964 5.91065 6.47096
10.0808 6.46078 6.44474
10.302 7.01558 6.42067
10.5231 7.57418 6.39858
10.7441 8.13585 6.37821
10.9647 8.70001 6.3592
11.185 9.26625 6.34114
11.4044 9.83427 6.32367
11.6228 10.4039 6.30649
11.8395 10.975 6.28946
12.0538 11.5476 6.27258
12.2652 12.1215 6.256
12.4726 12.6966 6.23993
12.6752 13.2728 6.22463
12.8721 13.8499 6.21031
13.0625 14.4275 6.19709
13.2455 15.0054 6.18502
13.4204 15.5833 6.17406
13.5863 16.1604 6.16414
13.7426 16.7363 6.15516
13.8886 17.3103 6.14708
14.0238 17.8816 6.13984
14.1479 18.4496 6.13343
14.2609 19.0136 6.12777
14.363 19.5733 6.12274
14.4547 20.1285 6.11817
14.5369 20.6792 6.11393
14.6103 21.2252 6.1099
14.6759 21.7667 6.10604
14.7347 22.3038 6.10228
14.7876 22.8365 6.09854
14.8354 23.3651 6.09466
14.8787 23.8895 6.09046
14.9178 24.4098 6.08569
14.953 24.9257 6.0801
14.9841 25.4372 6.07343
15.0108 25.9437 6.06547
15.0325 26.4448 6.0561
15.0486 26.9399 6.04533
15.0582 27.428 6.03333
15.0606 27.9085 6.02046
15.0549 28.3806 6.00725
15.0404 28.8434 5.99434
15.0165 29.2965 5.98237
14.9823 29.7392 5.97182
14.9376 30.171 5.96291
14.8817 30.5915 5.95559
14.8146 31.0002 5.94951
14.7363 31.3965 5.94416
14.6468 31.7801 5.93898
14.5465 32.1506 5.93344
14.4359 32.5075 5.9272
14.3154 32.8506 5.92008
14.1855 33.1796 5.9121
14.0466 33.4939 5.90344
13.8992 33.793 5.89435
13.7436 34.076 5.88512
13.58 34.3419 5.87601
13.4087 34.5894 5.86726
13.2298 34.8175 5.85907
13.0436 35.0245 5.85169
12.8502 35.2093 5.8454
12.65 35.3702 5.84051
12.4435 35.506 5.83732
12.2314 35.6155 5.83604
12.0145 35.6975 5.83678
11.7938 35.7514 5.83946
11.5701 35.7765 5.84389
11.3446 35.7722 5.84985
11.1183 35.7385 5.85717
10.892 35.6752 5.86587
10.6663 35.5823 5.87617
10.4416 35.4598 5.88851
10.218 35.3081 5.90348
9.99548 35.1272 5.92173
9.77346 34.9178 5.94394
9.55122 34.6806 5.97061
9.32771 34.4165 6.00204
9.10158 34.1272 6.03821
8.87126 33.8141 6.07871
8.63504 33.4793 6.12281
8.39117 33.1248 6.16948
8.13788 32.7528 6.21757
7.87346 32.3656 6.26587
7.59627 31.9654 6.31323
7.30483 31.5546 6.35854
6.99787 31.1354 6.40076
6.67443 30.7098 6.4389
6.33391 30.2796 6.47204
5.97613 29.8467 6.49944
5.60138 29.4122 6.52055
5.21037 28.9774 6.53508
4.80423 28.5429 6.54302
4.38435 28.1092 6.54464
3.95233 27.6763 6.54041
3.5099 27.2443 6.53102
3.05878 26.8129 6.51734
2.60068 26.3818 6.5004
2.13724 25.9505 6.48134
1.67004 25.5186 6.46142
1.20062 25.0854 6.44195
0.730457 24.6506 6.42427
0.260987 24.2138 6.40969
-0.206456 23.7746 6.39944
-0.670662 23.3332 6.39455
-1.13057 22.8899 6.39577
-1.58535 22.4452 6.40342
-2.03435 21.9998 6.41732
-2.47718 21.5545 6.43683
-2.91361 21.1101 6.46089
-3.34349 20.6671 6.48811
-3.76674 20.2261 6.51692
-4.18313 19.7871 6.54564
-4.59228 19.3499 6.57255
-4.99359 18.9143 6.59599
-5.38615 18.4797 6.61436
-5.76874 18.0457 6.62626
-6.13991 17.6119 6.6306
-6.49796 17.1778 6.62669
-6.84102 16.7433 6.61435
-7.16714 16.3081 6.59403
-7.47425 15.8723 6.56673
-7.76027 15.4358 6.53394
-8.02324 14.999 6.49745
-8.26157 14.5622 6.45917
-8.4742 14.126 6.42087
-8.66086 13.6913 6.38408
-8.82214 13.2588 6.34992
-8.95946 12.8292 6.31893
-9.07493 12.4035 6.29107
-9.17106 11.9823 6.26565
-9.25057 11.5663 6.24153
-9.31622 11.1562 6.21736
-9.37068 10.7526 6.19184
-9.41652 10.356 6.1639
-9.45608 9.9667 6.13284
-9.49139 9.58486 6.09835
-9.52414 9.21049 6.06049
-9.55558 8.84344 6.01965
-9.5866 8.48335 5.9765
-9.6177 8.12975 5.93186
-9.64905 7.78207 5.88664
-9.68054 7.43974 5.8418
-9.71186 7.10217 5.79821
-9.74257 6.76877 5.75661
-9.77216 6.43895 5.71754
-9.80004 6.11213 5.68126
-9.82558 5.78785 5.64783
-9.84812 5.46586 5.61713
-9.86691 5.14607 5.58891
-9.88118 4.8286 5.56296
-9.89008 4.51371 5.5391
-9.89272 4.20185 5.51727
-9.8882 3.89356 5.4975
-9.8756 3.58952 5.47991
-9.854 3.29053 5.46461
-9.82253 2.99743 5.45171
-9.78037 2.7112 5.4412
-9.72679 2.43282 5.43296
-9.66112 2.16328 5.4267
-9.58272 1.90351 5.42206
-9.49101 1.65432 5.41856
-9.38556 1.41644 5.41576
-9.26614 1.19046 5.41327
-9.13283 0.976962 5.41074
-8.98603 0.776476 5.40793
-8.82644 0.589568 5.40464
-8.65496 0.41683 5.40081
-8.47259 0.25887 5.3965
-8.28033 0.116304 5.39188
-8.07912 -0.010261 5.3873
-7.86985 -0.120238 5.38312
-7.65336 -0.213101 5.37975
-7.43044 -0.288424 5.37747
-7.20183 -0.345952 5.37639
-6.96817 -0.385652 5.37634
-6.72998 -0.40775 5.37695
-6.48766 -0.412715 5.37769
-6.24151 -0.401211 5.37795
-5.9918 -0.374027 5.37725
-5.73889 -0.332013 5.37525
-5.48318 -0.276013 5.37189
-5.22518 -0.206808 5.36738
-4.96553 -0.12506 5.36219
-4.70493 -0.0312677 5.35699
-4.4442 0.0742544 5.35255
-4.18425 0.191383 5.3497
-3.92604 0.320169 5.34916
-3.67051 0.460797 5.35149
-3.41847 0.613537 5.35702
-3.17059 0.778692 5.36574
-2.92727 0.956556 5.37736
-2.68866 1.14738 5.39132
-2.45456 1.35134 5.40693
-2.22446 1.5685 5.42344
-1.99747 1.79881 5.44011
-1.77244 2.0421 5.4563
-1.54796 2.2981 5.47142
-1.32247 2.56644 5.48494
-1.09438 2.84658 5.4964
-0.862191 3.13786 5.50546
-0.624536 3.43948 5.51191
-0.380202 3.75048 5.51566
-0.128125 4.06987 5.51671
0.13258 4.39661 5.51512
0.402558 4.72974 5.51098
0.682147 5.06836 5.50445
0.971346 5.41171 5.49575
1.2698 5.75917 5.48513
1.57681 6.11027 5.47288
1.89132 6.46472 5.45922
2.21194 6.82231 5.44423
2.53703 7.18299 5.42786
2.86474 7.54678 5.40993
3.19316 7.91382 5.39025
3.52035 8.28428 5.36878
3.84439 8.65839 5.34573
4.16344 9.03634 5.32164
4.4757 9.41826 5.29732
4.77946 9.80423 5.27384
5.07303 10.1942 5.25239
5.35481 10.5882 5.23416
5.62334 10.9861 5.22017
5.87732 11.3877 5.21112
6.11567 11.7929 5.20737
6.33751 12.2017 5.20887
6.54208 12.6138 5.21531
6.72871 13.0293 5.22626
6.89669 13.4479 5.24125
7.04523 13.8694 5.25984
7.17348 14.2933 5.2816
7.28052 14.719 5.3061
7.36548 15.1455 5.33277
7.42762 15.5718 5.36095
7.46641 15.9966 5.38984
7.48151 16.4185 5.41848
7.47281 16.836 5.4458
7.44034 17.2474 5.47064
7.38432 17.6508 5.49186
7.30511 18.0442 5.50852
7.20321 18.4252 5.51998
7.07926 18.7918 5.52606
6.93402 19.1415 5.52708
6.76835 19.4724 5.52384
6.58324 19.7823 5.51756
6.37976 20.0693 5.50968
6.15912 20.3317 5.50165
5.92264 20.5682 5.49477
5.67169 20.7781 5.48993
5.40773 20.961 5.48758
5.13228 21.1172 5.48762
4.8469 21.2473 5.48953
4.55316 21.3525 5.49239
4.25263 21.4343 5.4951
3.94684 21.4944 5.49656
3.6372 21.5348 5.49587
3.32499 21.5574 5.49247
3.01133 21.5644 5.48623
2.69709 21.5576 5.47738
2.38297 21.5391 5.4664
2.06942 21.5104 5.45387
1.75671 21.473 5.44035
1.44489 21.4285 5.42626
1.13388 21.3778 5.41186
0.823471 21.3221 5.39729
0.513432 21.262 5.38272
0.203498 21.1983 5.36839
-0.106557 21.1313 5.35465
-0.416923 21.0614 5.34187
-0.727765 20.9886 5.33042
-1.03925 20.9132 5.32048
-1.3515 20.8352 5.31207
-1.6646 20.7545 5.30502
-1.97853 20.6712 5.299
