ply
format ascii 1.0
element vertex 1901
property float x
property float y
property float z
element face 0
property list uchar int vertex_index
end_header
1.39186 -4.22036 0.160542
1.42208 -4.26649 0.1729
1.42208 -4.26649 0.1729
1.42208 -4.26649 0.1729
1.40693 -4.28858 0.172853
1.40693 -4.28858 0.172853
1.39208 -4.26878 0.172218
1.39208 -4.26878 0.172218
1.40693 -4.28858 0.172853
1.40681 -4.29194 0.184758
1.40693 -4.28858 0.172853
1.40706 -4.28518 0.160956
1.40693 -4.28858 0.172853
1.40693 -4.28858 0.172853
1.40693 -4.28858 0.172853
1.4215 -4.26712 0.172568
1.40665 -4.24734 0.171933
1.40665 -4.24734 0.171933
1.40665 -4.24734 0.171933
1.40665 -4.24734 0.171933
1.39208 -4.26878 0.172218
1.39208 -4.26878 0.172218
1.39208 -4.26878 0.172218
1.39208 -4.26878 0.172218
1.39208 -4.26878 0.172218
1.39208 -4.26878 0.172218
1.39208 -4.26878 0.172218
1.39208 -4.26878 0.172218
1.39208 -4.26878 0.172218
1.40665 -4.24734 0.171933
1.39208 -4.26878 0.172218
1.40665 -4.24734 0.171933
1.40665 -4.24734 0.171933
1.4215 -4.26712 0.172568
1.40693 -4.28858 0.172853
1.40693 -4.28858 0.172853
1.40693 -4.28858 0.172853
1.39208 -4.26878 0.172218
1.40693 -4.28858 0.172853
1.40693 -4.28858 0.172853
1.40665 -4.29222 0.18473
1.40665 -4.29222 0.18473
1.40665 -4.29222 0.18473
1.40665 -4.29222 0.18473
1.40665 -4.29222 0.18473
1.40693 -4.28858 0.172853
1.40693 -4.28858 0.172853
1.40693 -4.28858 0.172853
1.40693 -4.28858 0.172853
1.40693 -4.28858 0.172853
1.40693 -4.28858 0.172853
1.40693 -4.28858 0.172853
1.40693 -4.28858 0.172853
1.40693 -4.28858 0.172853
1.40693 -4.28858 0.172853
1.40693 -4.28858 0.172853
1.40693 -4.28858 0.172853
1.39208 -4.26878 0.172218
1.39208 -4.26878 0.172218
1.39196 -4.26508 0.184625
1.39208 -4.26878 0.172218
1.39208 -4.26878 0.172218
1.39222 -4.26539 0.16032
1.39222 -4.26539 0.16032
1.39222 -4.26539 0.16032
1.39222 -4.26539 0.16032
1.39222 -4.26539 0.16032
1.39222 -4.26539 0.16032
1.39222 -4.26539 0.16032
1.40706 -4.28518 0.160956
1.37693 -4.2909 0.172172
1.37693 -4.2909 0.172172
3.45425 -1.57949 0.323824
1.37693 -4.2909 0.172172
1.37693 -4.2909 0.172172
1.37693 -4.2909 0.172172
1.3915 -4.26945 0.171888
1.3915 -4.26945 0.171888
1.3915 -4.26945 0.171888
1.3915 -4.26945 0.171888
1.4068 -4.28488 0.185256
1.4068 -4.28488 0.185256
1.4068 -4.28488 0.185256
1.4068 -4.28488 0.185256
1.4068 -4.28488 0.185256
1.4068 -4.28488 0.185256
1.4068 -4.28488 0.185256
1.39196 -4.26508 0.184625
1.39196 -4.26508 0.184625
1.39208 -4.26878 0.172218
1.3913 -4.27117 0.159876
1.3913 -4.27117 0.159876
1.3913 -4.27117 0.159876
1.3913 -4.27117 0.159876
1.3913 -4.27117 0.159876
1.3913 -4.27117 0.159876
1.3913 -4.27117 0.159876
1.40614 -4.29097 0.160514
1.40614 -4.29097 0.160514
1.40614 -4.29097 0.160514
1.39196 -4.26508 0.184625
1.39196 -4.26508 0.184625
1.39196 -4.26508 0.184625
1.39196 -4.26508 0.184625
1.39196 -4.26508 0.184625
1.39196 -4.26508 0.184625
1.39196 -4.26508 0.184625
1.39196 -4.26508 0.184625
1.39196 -4.26508 0.184625
1.39196 -4.26508 0.184625
1.40653 -4.24364 0.184342
1.40653 -4.24364 0.184342
1.40653 -4.24364 0.184342
1.40653 -4.24364 0.184342
1.39196 -4.26508 0.184625
1.39196 -4.26508 0.184625
1.39196 -4.26508 0.184625
1.39196 -4.26508 0.184625
1.39196 -4.26508 0.184625
1.39196 -4.26508 0.184625
1.37654 -4.2979 0.195957
1.37654 -4.2979 0.195957
1.37654 -4.2979 0.195957
1.37654 -4.2979 0.195957
1.37654 -4.2979 0.195957
1.37654 -4.2979 0.195957
1.37654 -4.2979 0.195957
1.37575 -4.30028 0.183624
1.37654 -4.2979 0.195957
1.37654 -4.2979 0.195957
1.4215 -4.26712 0.172568
1.40636 -4.28924 0.172524
1.40636 -4.28924 0.172524
1.40636 -4.28924 0.172524
1.40636 -4.28924 0.172524
1.40636 -4.28924 0.172524
1.39179 -4.3107 0.172808
1.39179 -4.3107 0.172808
1.40693 -4.28858 0.172853
1.40693 -4.28858 0.172853
1.40653 -4.24364 0.184342
1.40653 -4.24364 0.184342
1.40653 -4.24364 0.184342
1.40653 -4.24364 0.184342
1.40653 -4.24364 0.184342
1.40653 -4.24364 0.184342
1.40653 -4.24364 0.184342
1.39196 -4.26508 0.184625
1.3768 -4.28721 0.18458
1.39208 -4.26878 0.172218
1.40712 -4.25004 0.184164
1.37693 -4.2909 0.172172
1.36141 -4.26801 0.17234
1.40646 -4.24908 0.159918
1.40646 -4.24908 0.159918
1.42208 -4.26649 0.1729
1.40712 -4.25004 0.184164
1.42182 -4.22524 0.171979
1.39112 -4.22443 0.172101
1.39112 -4.22443 0.172101
1.3916 -4.22711 0.184329
1.3916 -4.22711 0.184329
1.3916 -4.22711 0.184329
1.3916 -4.22711 0.184329
1.40712 -4.25004 0.184164
1.40712 -4.25004 0.184164
1.40697 -4.25032 0.184134
1.40697 -4.25032 0.184134
1.39181 -4.27241 0.18409
1.39181 -4.27241 0.18409
1.39103 -4.2748 0.17175
1.39103 -4.2748 0.17175
1.37551 -4.2519 0.171911
1.37629 -4.2495 0.184251
1.37551 -4.2519 0.171911
1.37551 -4.2519 0.171911
1.37551 -4.2519 0.171911
1.3913 -4.27117 0.159876
1.39208 -4.26878 0.172218
1.39208 -4.26878 0.172218
1.39196 -4.27213 0.184123
1.39196 -4.27213 0.184123
1.39196 -4.27213 0.184123
1.39196 -4.27213 0.184123
1.40712 -4.25004 0.184164
1.39196 -4.27213 0.184123
1.40712 -4.25004 0.184164
1.42169 -4.22859 0.183873
1.39169 -4.27578 0.195995
1.40685 -4.25369 0.196035
1.39034 -4.22682 0.159753
1.40628 -4.20231 0.172147
1.39112 -4.22443 0.172101
1.39172 -4.22376 0.172432
1.39172 -4.22376 0.172432
1.37656 -4.24587 0.172385
1.40725 -4.24669 0.172265
1.39181 -4.27241 0.18409
1.37629 -4.2495 0.184251
1.39145 -4.22739 0.184296
1.40712 -4.25004 0.184164
1.40712 -4.25004 0.184164
1.40712 -4.25004 0.184164
1.40712 -4.25004 0.184164
1.40712 -4.25004 0.184164
1.40712 -4.25004 0.184164
1.40712 -4.25004 0.184164
1.42229 -4.22798 0.184207
1.40712 -4.25004 0.184164
-1.49801 -0.606344 0.30239
1.37617 -4.25287 0.196155
1.37629 -4.2495 0.184251
1.37617 -4.25287 0.196155
1.39181 -4.27241 0.18409
1.36114 -4.27164 0.184208
1.37617 -4.25287 0.196155
1.39169 -4.27578 0.195995
1.37654 -4.2979 0.195957
1.37654 -4.2979 0.195957
1.37654 -4.2979 0.195957
1.39181 -4.27241 0.18409
1.40697 -4.25032 0.184134
1.39169 -4.27578 0.195995
1.39169 -4.27578 0.195995
1.40697 -4.25032 0.184134
1.37617 -4.25287 0.196155
1.39145 -4.22739 0.184296
1.40697 -4.25032 0.184134
1.39181 -4.27241 0.18409
1.39145 -4.22739 0.184296
1.40725 -4.24669 0.172265
1.4222 -4.21724 0.197135
1.40819 -4.18954 0.222046
1.39352 -4.18222 0.221132
1.42255 -4.22837 0.159914
1.42255 -4.22837 0.159914
1.42242 -4.22462 0.172313
1.4223 -4.22092 0.18472
1.4222 -4.21724 0.197135
1.39349 -4.22712 0.245178
1.40725 -4.24669 0.172265
1.40685 -4.25369 0.196035
1.42012 -4.24987 0.255215
1.42055 -4.24298 0.231407
1.42143 -4.23224 0.195744
1.40685 -4.25369 0.196035
1.40685 -4.25369 0.196035
1.40685 -4.25369 0.196035
1.39011 -4.24503 0.243738
1.42023 -4.24649 0.243311
1.3909 -4.27817 0.183657
1.39181 -4.27241 0.18409
1.37629 -4.2495 0.184251
1.37551 -4.2519 0.171911
1.40697 -4.25032 0.184134
1.40697 -4.25032 0.184134
1.37629 -4.2495 0.184251
1.37551 -4.2519 0.171911
1.40697 -4.25032 0.184134
1.37551 -4.2519 0.171911
1.39181 -4.27241 0.18409
1.3913 -4.27117 0.159876
1.40725 -4.24669 0.172265
1.39094 -4.22615 0.160084
1.39208 -4.26878 0.172218
1.40725 -4.24669 0.172265
1.40725 -4.24669 0.172265
1.39208 -4.26878 0.172218
1.37644 -4.24922 0.184288
1.3916 -4.22711 0.184329
1.37566 -4.25162 0.171948
1.37617 -4.25287 0.196155
1.38995 -4.23382 0.183521
1.37681 -4.29425 0.184083
1.39082 -4.22951 0.171983
1.37617 -4.25287 0.196155
1.38995 -4.23382 0.183521
1.40606 -4.25608 0.183691
1.42064 -4.23463 0.183395
1.39055 -4.23316 0.18385
1.39169 -4.27578 0.195995
1.37654 -4.2979 0.195957
1.39169 -4.27578 0.195995
1.39169 -4.27578 0.195995
1.37654 -4.2979 0.195957
1.40626 -4.25433 0.195705
1.39133 -4.23076 0.196194
1.40626 -4.25433 0.195705
1.40685 -4.25369 0.196035
1.42143 -4.23224 0.195744
1.39181 -4.27241 0.18409
1.40697 -4.25032 0.184134
1.42182 -4.22524 0.171979
1.42182 -4.22524 0.171979
1.42155 -4.22888 0.183849
1.40697 -4.25032 0.184134
1.42155 -4.22888 0.183849
1.40697 -4.25032 0.184134
1.40697 -4.25032 0.184134
1.40697 -4.25032 0.184134
1.40712 -4.25004 0.184164
1.40725 -4.24669 0.172265
1.40725 -4.24669 0.172265
1.40725 -4.24669 0.172265
1.40725 -4.24669 0.172265
1.42208 -4.26649 0.1729
1.42155 -4.22888 0.183849
1.40725 -4.24669 0.172265
1.40725 -4.24669 0.172265
1.40725 -4.24669 0.172265
1.39181 -4.27241 0.18409
1.39181 -4.27241 0.18409
1.39181 -4.27241 0.18409
1.39181 -4.27241 0.18409
1.39181 -4.27241 0.18409
1.40697 -4.25032 0.184134
1.39208 -4.26878 0.172218
1.40697 -4.25032 0.184134
1.40697 -4.25032 0.184134
1.40697 -4.25032 0.184134
1.39099 -4.22778 0.183998
1.37644 -4.24922 0.184288
1.39196 -4.27213 0.184123
1.40712 -4.25004 0.184164
1.39099 -4.22778 0.183998
1.37644 -4.24922 0.184288
1.40653 -4.25069 0.183833
1.39196 -4.27213 0.184123
1.37644 -4.24922 0.184288
1.39196 -4.27213 0.184123
1.40685 -4.25369 0.196035
1.39133 -4.23076 0.196194
1.39133 -4.23076 0.196194
1.40606 -4.25608 0.183691
1.40685 -4.25369 0.196035
1.40606 -4.25608 0.183691
1.39133 -4.23076 0.196194
1.40606 -4.25608 0.183691
1.40685 -4.25369 0.196035
1.39133 -4.23076 0.196194
1.39195 -4.27615 0.171693
1.37617 -4.25287 0.196155
1.39208 -4.26878 0.172218
1.39181 -4.27241 0.18409
1.39208 -4.26878 0.172218
1.37656 -4.24587 0.172385
1.40697 -4.25032 0.184134
1.40697 -4.25032 0.184134
1.40725 -4.24669 0.172265
1.39172 -4.22376 0.172432
1.39172 -4.22376 0.172432
1.39172 -4.22376 0.172432
1.3916 -4.22005 0.184845
1.39172 -4.22376 0.172432
1.40655 -4.24355 0.173068
1.3916 -4.22005 0.184845
1.39172 -4.22376 0.172432
1.42169 -4.22154 0.184388
1.39172 -4.22376 0.172432
1.3916 -4.22005 0.184845
1.40725 -4.24669 0.172265
1.40725 -4.24669 0.172265
1.43737 -4.24817 0.160554
1.4222 -4.21724 0.197135
1.394 -4.22393 0.209016
1.4218 -4.27013 0.184775
1.40674 -4.25702 0.207942
1.40699 -4.25743 0.18364
1.40674 -4.25702 0.207942
1.40674 -4.25702 0.207942
1.39181 -4.27241 0.18409
1.40697 -4.25032 0.184134
1.42155 -4.22888 0.183849
1.40576 -4.26454 0.231697
1.40576 -4.26454 0.231697
1.42155 -4.22888 0.183849
1.40697 -4.25032 0.184134
1.42155 -4.22888 0.183849
1.40697 -4.25032 0.184134
1.39181 -4.27241 0.18409
1.40725 -4.24669 0.172265
1.40725 -4.24669 0.172265
1.40725 -4.24669 0.172265
1.40725 -4.24669 0.172265
1.40725 -4.24669 0.172265
1.40725 -4.24669 0.172265
1.40725 -4.24669 0.172265
1.40725 -4.24669 0.172265
1.40725 -4.24669 0.172265
1.40725 -4.24669 0.172265
1.39103 -4.2748 0.17175
1.39181 -4.27241 0.18409
1.40697 -4.25032 0.184134
1.40697 -4.25032 0.184134
1.40725 -4.24669 0.172265
1.39208 -4.26878 0.172218
1.39172 -4.22376 0.172432
1.40725 -4.24669 0.172265
1.39208 -4.26878 0.172218
1.39208 -4.26878 0.172218
1.39145 -4.22739 0.184296
1.39181 -4.27241 0.18409
1.40685 -4.25369 0.196035
1.40685 -4.25369 0.196035
1.39169 -4.27578 0.195995
1.40697 -4.25032 0.184134
1.40697 -4.25032 0.184134
1.39181 -4.27241 0.18409
1.39145 -4.22739 0.184296
1.40685 -4.25369 0.196035
1.39169 -4.27578 0.195995
1.40697 -4.25032 0.184134
1.40685 -4.25369 0.196035
1.39169 -4.27578 0.195995
1.40685 -4.25369 0.196035
1.40697 -4.25032 0.184134
1.40685 -4.25369 0.196035
1.40685 -4.25369 0.196035
1.40685 -4.25369 0.196035
1.40685 -4.25369 0.196035
1.40685 -4.25369 0.196035
1.39156 -4.27208 0.208399
1.39156 -4.27208 0.208399
1.40763 -4.25134 0.208387
1.40685 -4.25369 0.196035
1.40685 -4.25369 0.196035
1.40685 -4.25369 0.196035
1.40712 -4.25004 0.184164
1.40613 -4.25063 0.208111
1.40763 -4.25134 0.208387
1.37644 -4.24922 0.184288
1.37617 -4.25287 0.196155
1.40569 -4.26152 0.219476
1.40569 -4.26152 0.219476
1.37538 -4.25527 0.183816
1.37617 -4.25287 0.196155
1.40548 -4.25672 0.183362
1.40685 -4.25369 0.196035
1.38978 -4.23405 0.183497
1.38986 -4.24215 0.231517
1.40712 -4.25004 0.184164
1.40712 -4.25004 0.184164
1.39133 -4.23076 0.196194
1.40685 -4.25369 0.196035
1.40685 -4.25369 0.196035
1.40685 -4.25369 0.196035
1.40685 -4.25369 0.196035
1.42143 -4.23224 0.195744
1.40712 -4.25004 0.184164
1.42183 -4.23233 0.171475
1.37681 -4.29425 0.184083
1.37644 -4.24922 0.184288
1.36128 -4.27137 0.184248
1.39118 -4.27452 0.171783
1.40712 -4.25004 0.184164
1.37644 -4.24922 0.184288
1.39196 -4.27213 0.184123
1.42169 -4.22859 0.183873
1.39118 -4.27452 0.171783
1.40712 -4.25004 0.184164
1.42182 -4.22524 0.171979
1.40665 -4.24734 0.171933
1.42182 -4.22524 0.171979
1.42182 -4.22524 0.171979
1.4055 -4.20471 0.159793
1.39145 -4.22739 0.184296
1.40626 -4.25433 0.195705
1.40685 -4.25369 0.196035
1.40589 -4.20931 0.195904
1.40626 -4.25433 0.195705
1.37644 -4.24922 0.184288
1.40725 -4.24669 0.172265
1.37578 -4.24826 0.160043
1.3913 -4.27117 0.159876
1.39208 -4.26878 0.172218
1.40665 -4.24734 0.171933
1.39112 -4.22443 0.172101
1.39034 -4.22682 0.159753
1.37693 -4.2909 0.172172
1.39208 -4.26878 0.172218
1.39145 -4.22739 0.184296
1.40725 -4.24669 0.172265
1.39172 -4.22376 0.172432
1.39172 -4.22376 0.172432
1.37656 -4.24587 0.172385
1.37656 -4.24587 0.172385
1.39172 -4.22376 0.172432
1.42255 -4.22837 0.159914
1.43663 -4.19916 0.208737
1.39301 -4.22575 0.220948
1.40681 -4.29194 0.184758
1.39196 -4.27213 0.184123
1.39169 -4.27578 0.195995
1.39169 -4.27578 0.195995
1.39169 -4.27578 0.195995
1.40712 -4.25004 0.184164
1.40685 -4.25369 0.196035
1.40685 -4.25369 0.196035
1.39048 -4.29005 0.243567
1.39048 -4.29005 0.243567
1.40697 -4.25032 0.184134
1.40697 -4.25032 0.184134
1.40697 -4.25032 0.184134
1.40697 -4.25032 0.184134
1.40697 -4.25032 0.184134
1.40697 -4.25032 0.184134
1.40697 -4.25032 0.184134
1.39145 -4.22739 0.184296
1.39145 -4.22739 0.184296
1.39133 -4.23076 0.196194
1.39145 -4.22739 0.184296
1.40697 -4.25032 0.184134
1.40697 -4.25032 0.184134
1.40697 -4.25032 0.184134
1.40697 -4.25032 0.184134
1.39145 -4.22739 0.184296
1.39145 -4.22739 0.184296
1.39145 -4.22739 0.184296
1.39145 -4.22739 0.184296
1.39145 -4.22739 0.184296
1.39147 -4.2234 0.19674
1.37582 -4.19682 0.209337
1.36176 -4.1746 0.221069
1.36229 -4.17189 0.257766
1.39335 -4.12168 0.28269
1.34866 -4.13118 0.332468
1.36551 -4.06218 0.381182
1.33737 -4.10081 0.466996
1.33853 -4.04511 0.565931
6.19517 3.53602 0.348643
1.34048 -4.04738 0.723959
1.32681 -4.06011 0.798335
1.37216 -4.08268 0.871607
3.42469 -1.46949 0.839381
1.41858 -4.13389 1.03251
1.40329 -4.20354 1.11804
1.40658 -4.2399 1.29072
1.31811 -4.22951 1.3709
1.30378 -4.25509 1.49352
1.30473 -4.47758 1.65419
1.37275 -4.56208 1.78202
1.46688 -4.69109 2.04759
1.49818 -4.82006 2.11479
1.31665 -4.82636 2.34075
1.31906 -5.00812 2.43957
1.26072 -5.23014 2.55157
1.12707 -5.43051 2.71406
1.06091 -5.42205 2.65502
0.973722 -5.32839 2.88769
1.25758 -5.82647 3.06819
1.60721 -6.92148 3.96097
1.67407 -7.00863 4.09425
1.66541 -7.17031 4.30851
1.75229 -7.35918 4.42636
1.96957 -7.61384 4.52932
2.10055 -7.7787 4.62917
2.18401 -8.19137 4.74707
2.20655 -8.38954 4.84556
2.36486 -8.47987 4.56699
2.36331 -8.66697 4.64264
2.39648 -8.93722 4.7307
2.38028 -9.27717 4.84555
2.48766 -9.47611 4.92167
2.46122 -9.74381 4.98467
2.55377 -9.92434 5.04884
2.62972 -10.0855 5.10077
2.66509 -10.3442 5.1532
2.70808 -10.5867 5.17909
2.73473 -10.7245 5.19187
2.81087 -10.9256 5.26827
2.87439 -11.2228 5.26936
2.93931 -11.487 5.34225
2.99786 -11.7062 5.3682
3.04445 -11.946 5.40703
3.14981 -12.102 5.39601
3.18059 -12.3171 5.42228
3.21051 -12.4967 5.4236
3.26517 -12.7278 5.44979
3.34206 -12.927 5.49652
3.37299 -13.0637 5.54607
3.43505 -13.2334 5.54705
3.49969 -13.4061 5.60731
3.5661 -13.578 5.68031
3.64943 -13.7241 5.73724
3.75956 -13.9608 5.79642
3.8128 -14.1478 5.84103
3.86088 -14.3478 5.92486
3.93457 -14.4906 6.16325
3.99662 -14.7061 6.24186
4.06099 -14.8393 6.26978
4.12206 -14.9747 6.31763
4.27386 -15.2442 6.26145
4.31597 -15.3226 6.3331
4.43744 -15.5922 6.52309
4.51071 -15.7839 6.58569
4.83036 -16.319 6.77297
4.8873 -16.4471 6.78998
4.97874 -16.9766 6.68855
5.10651 -17.1423 6.76849
5.17001 -17.2648 6.78657
5.23865 -17.3637 6.69643
5.44865 -17.1772 6.83061
5.30193 -17.6154 6.72067
5.37884 -17.669 6.65123
5.44925 -17.7896 6.72449
5.49931 -17.8781 6.66733
5.72859 -17.5721 6.77865
5.81597 -17.6426 6.87315
5.85805 -17.7208 6.91491
5.91381 -17.8036 6.87832
5.98002 -17.8492 6.91254
6.08873 -17.911 6.96091
6.15969 -17.9689 6.97212
6.26738 -17.9967 6.93965
6.35911 -18.0575 7.00266
6.43423 -18.1207 7.02381
6.64292 -18.2385 6.90501
6.63358 -18.1879 6.9803
6.70092 -18.204 7.12395
6.81125 -18.3011 7.14997
6.87019 -18.3823 7.20649
6.97312 -18.4343 7.29045
6.96917 -18.3854 7.28124
7.21723 -18.6123 7.44791
7.38698 -18.7385 7.53034
7.47378 -18.8604 7.60075
7.60644 -19.0083 7.69667
7.6896 -19.0762 7.78923
7.78957 -19.1317 7.89514
7.91637 -19.2255 8.03428
8.02929 -19.3326 8.13899
8.14233 -19.4397 8.24359
8.24963 -19.5387 8.32541
8.3233 -19.6091 8.41477
8.43647 -19.717 8.55353
8.54369 -19.8719 8.64883
8.65366 -19.9807 8.82461
8.78149 -20.0691 8.89808
8.83243 -20.227 9.02542
8.93965 -20.3273 9.12286
9.03999 -20.4329 9.2294
9.15721 -20.5425 9.34591
9.27102 -20.6499 9.48425
9.41278 -20.7432 9.60469
9.47139 -20.8362 9.77431
9.63069 -20.9646 9.85802
9.71862 -21.0324 9.98209
9.86168 -21.12 10.106
9.91994 -21.2578 10.1909
9.98545 -21.3269 10.3046
10.1138 -21.4219 10.4081
10.2512 -21.5593 10.5165
10.298 -21.6371 10.6178
10.4198 -21.7168 10.6848
10.5157 -21.8225 10.7587
10.6376 -21.9027 10.7907
10.6512 -21.9864 10.8824
10.7583 -22.0807 10.9298
10.867 -22.2277 10.9705
10.9535 -22.2639 11.0153
10.9801 -22.3077 11.0655
11.0748 -22.3538 11.1151
11.119 -22.3819 11.1258
11.1556 -22.411 11.1644
11.2067 -22.4848 11.2121
11.2627 -22.5043 11.2122
11.3137 -22.5191 11.2355
11.3303 -22.5693 11.2455
11.3675 -22.595 11.2686
11.4201 -22.6671 11.2654
11.4064 -22.6781 11.265
11.4493 -22.7641 11.2733
11.4567 -22.8063 11.2948
11.434 -22.8361 11.2864
11.3896 -22.8668 11.3001
11.4108 -22.8614 11.2976
11.3578 -22.8814 11.3072
11.3881 -22.9201 11.3174
11.3745 -22.9313 11.3171
11.3473 -22.9536 11.3164
9.77069 -20.7833 11.3931
11.3564 -22.9976 11.329
11.3647 -22.9817 11.3528
11.3385 -22.946 11.3545
11.3175 -22.9151 11.3327
11.3324 -22.9608 11.3062
11.2897 -22.9304 11.3065
11.3075 -22.9224 11.3187
11.2911 -22.9277 11.3173
11.2747 -22.9331 11.3159
11.2528 -22.9004 11.3295
11.3011 -22.8542 11.3433
11.3143 -22.8462 11.3593
11.3165 -22.7855 11.3459
9.79189 -20.6172 11.4427
11.3622 -22.6627 11.388
11.3952 -22.6192 11.3846
11.3985 -22.5602 11.3358
11.4064 -22.4916 11.3667
11.4279 -22.4248 11.3301
11.4023 -22.3319 11.3851
11.4565 -22.2339 11.4288
11.5017 -22.1516 11.4489
11.5045 -22.0907 11.4353
11.5648 -21.9927 11.4032
11.5945 -21.852 11.4168
11.6649 -21.738 11.4288
11.7444 -21.6148 11.4816
11.7944 -21.4174 11.5428
11.8338 -21.289 11.5256
11.9077 -21.1211 11.5056
11.9549 -20.9768 11.5486
11.9556 -20.8593 11.5421
12.0478 -20.7454 11.5959
12.0842 -20.5557 11.5702
12.1567 -20.4511 11.6281
12.2233 -20.3362 11.6437
12.3122 -20.2172 11.6336
12.3686 -20.0602 11.6812
12.4083 -19.9232 11.6311
12.5427 -19.7162 11.6249
12.5951 -19.5515 11.6436
12.667 -19.3769 11.658
12.7765 -19.2326 11.6753
12.7837 -19.0558 11.6828
12.9067 -18.9256 11.6662
12.9715 -18.7062 11.659
13.0654 -18.5093 11.6796
13.1381 -18.3006 11.6786
13.2431 -18.152 11.6974
13.3275 -17.9238 11.6499
13.4491 -17.7265 11.6197
13.5525 -17.4687 11.6637
13.6543 -17.3195 11.62
13.7711 -17.1081 11.5775
13.8345 -16.8864 11.5338
13.9671 -16.7138 11.5666
14.0386 -16.4799 11.5954
14.157 -16.2767 11.5197
14.4131 -15.5927 11.5513
14.6096 -15.0987 11.5705
14.6782 -14.9454 11.5453
15.6651 -12.8968 11.4443
15.7224 -12.6978 11.4757
15.7765 -12.434 11.5071
15.8731 -12.0551 11.4267
15.8947 -11.9161 11.4025
15.9426 -11.5971 11.4421
16.057 -11.4089 11.4212
16.1167 -11.2152 11.432
16.1485 -11.0131 11.4763
16.1402 -10.825 11.4542
16.1339 -10.6819 11.5293
16.1571 -10.4252 11.4604
16.1787 -10.2408 11.5703
16.2096 -10.04 11.6072
16.2353 -9.94645 11.591
16.1804 -9.76589 11.6189
16.18 -9.62909 11.6175
16.213 -9.42877 11.6126
16.0552 -9.19659 11.5682
16.1819 -9.13351 11.6517
16.1769 -8.99649 11.6562
16.1239 -8.8165 11.6422
16.1011 -8.68608 11.6467
16.0681 -8.47815 11.6544
16.0648 -8.28996 11.7046
16.0897 -8.19827 11.7079
16.1011 -8.0195 11.7162
16.1045 -7.7717 11.7259
16.1183 -7.60144 11.7324
16.113 -7.40755 11.7625
16.1065 -7.2719 11.7871
16.0791 -7.13384 11.813
16.0725 -6.99799 11.8376
16.0479 -6.86192 11.8218
16.0786 -6.68324 11.8283
16.1019 -6.49917 11.8622
16.0547 -6.38884 11.8656
16.01 -6.19044 11.8997
16.0055 -6.08114 11.8946
15.9633 -5.91339 11.9192
15.9946 -5.70484 11.907
16.0409 -5.4866 11.9366
16.0665 -5.30375 11.9283
16.0436 -5.07692 11.9566
16.0933 -4.88322 11.9778
16.0953 -4.72985 11.9526
16.125 -4.52283 11.9607
16.1701 -4.30633 12.0106
16.215 -4.08215 12.0188
15.7763 -3.47376 12.0441
15.8308 -3.23731 12.0516
15.8896 -3.0305 12.1286
15.9145 -2.78403 12.132
16.444 -2.98928 12.0792
15.9862 -2.39388 12.1372
16.5215 -2.53421 12.0852
16.5304 -2.35783 12.0908
16.5863 -2.09705 12.1061
16.6315 -1.88329 12.1351
16.2846 -1.32491 12.2043
16.3863 -1.10961 12.2048
16.394 -0.894847 12.2215
16.4272 -0.645561 12.2196
16.4868 -0.505087 12.2396
16.8961 -0.512964 12.2035
16.9722 -0.337762 12.1882
17.06 -0.0980596 12.2411
16.7441 0.436531 12.2885
16.7549 0.593167 12.3114
16.7724 0.740808 12.325
17.1446 0.597886 12.2767
17.2064 0.720722 12.2873
17.2283 0.93911 12.272
16.8705 1.47771 12.3661
17.2253 1.24746 12.2859
16.8963 1.73569 12.313
16.9622 1.82354 12.3141
16.8968 2.01884 12.2901
16.8898 2.24871 12.2783
17.2797 1.99249 12.2351
17.2394 2.19017 12.2412
17.2571 2.31625 12.2453
17.2561 2.49894 12.2339
17.2365 2.65562 12.218
17.1809 2.8799 12.2066
17.1663 3.05037 12.1682
17.1074 3.28151 12.1765
17.1411 3.50651 12.1664
17.0863 3.73835 12.1677
16.7628 4.22325 12.2044
16.6863 4.4424 12.2108
16.6065 4.76131 12.1982
16.7403 4.74595 12.0884
16.4593 5.24732 12.2043
16.3429 5.54015 12.1622
16.2049 5.88886 12.1373
16.0889 6.14297 12.124
16.0225 6.44759 12.0978
15.9821 6.77266 12.0853
15.9191 7.27827 12.1175
15.831 7.57276 12.0876
15.7441 7.87639 12.091
15.7493 8.19135 12.0921
15.6469 8.58826 12.1508
15.6404 8.9049 12.0738
15.4899 9.18169 12.0588
15.422 9.55034 12.1165
15.3559 9.89176 12.0771
15.2746 10.1228 12.1061
15.133 10.5369 12.0467
15.0824 10.9756 11.9786
15.1409 11.3626 11.9622
15.0817 11.7142 11.9705
15.0994 12.1068 11.9688
15.0358 12.532 11.9155
15.0332 12.8586 11.9248
14.9819 13.1843 11.911
15.3949 13.0118 11.7369
15.3999 13.4245 11.7174
15.3707 13.7259 11.719
15.4539 14.1218 11.7266
15.5139 14.3894 11.723
15.5688 14.7147 11.7096
15.6131 15.0771 11.7078
15.6484 15.3746 11.6913
15.6839 15.6344 11.6864
15.7849 16.0427 11.6852
15.8768 16.3332 11.7247
15.9188 16.6195 11.7093
15.9964 16.8168 11.696
16.0436 17.1519 11.7151
16.214 17.472 11.6951
16.2134 17.7874 11.6958
16.2768 18.0283 11.7099
16.375 18.3421 11.6701
16.3958 18.6173 11.6726
16.5314 18.9767 11.6697
16.6522 19.1786 11.6912
16.6757 19.4892 11.6746
16.7394 19.7087 11.6649
16.7956 19.9463 11.6845
16.72 20.6362 12.0226
16.7848 20.9557 12.016
17.0622 20.9259 11.6523
16.9942 21.6061 12.0152
17.047 21.8403 12.027
17.1105 22.0694 12.014
17.192 22.3092 12.0065
17.2192 22.5572 12.0362
17.2719 22.8696 12.0163
17.3317 23.0815 12.0338
17.366 23.347 12.0492
17.5321 23.0983 11.7311
17.5925 23.2849 11.7299
17.5749 23.5441 11.7101
17.6207 23.7212 11.7486
17.594 23.9449 11.7282
17.4715 24.659 11.991
17.6299 24.3607 11.7146
17.6096 24.5352 11.7013
17.6248 24.6465 11.67
17.6446 24.864 11.6229
17.6184 25.0552 11.5851
17.5685 25.2694 11.5558
17.5437 25.4521 11.5017
17.5202 25.629 11.404
17.5242 25.8104 11.3346
17.4931 25.9509 11.264
17.4595 26.098 11.2086
17.436 26.2321 11.1154
17.3773 26.4421 11.0639
17.3672 26.5261 11.0269
17.2627 26.6519 10.8669
17.2091 26.7803 10.8435
17.1786 26.9106 10.7568
17.1218 26.9922 10.7031
17.0617 27.0834 10.6087
17.0065 27.1579 10.5402
16.9527 27.2471 10.495
16.8971 27.2953 10.4507
16.7953 27.39 10.4041
16.73 27.44 10.3229
16.6427 27.5136 10.2409
16.5489 27.5539 10.1869
16.5287 27.571 10.1712
16.3995 27.5713 10.1165
16.3441 27.6262 10.121
16.1462 27.8503 10.1278
16.0428 27.8844 10.1008
16.0104 27.7796 9.98294
15.8994 27.7692 9.95856
15.7994 27.8532 10.0151
15.7308 27.8766 9.99875
15.6289 27.906 9.9618
15.5288 27.8877 9.95891
15.4203 27.8697 9.94506
15.3416 27.8343 9.95909
15.2767 27.8217 9.98186
15.1772 27.7937 10.0068
15.0442 27.7678 9.99923
14.8629 27.7483 10.0141
14.768 27.7347 10.0103
14.5994 27.7376 9.99116
14.5239 27.7135 10.0255
14.3727 27.6952 9.99065
14.2419 27.6973 9.97648
14.09 27.6721 9.99499
13.9752 27.6215 10.0038
13.8735 27.5274 9.99702
13.7332 27.4698 9.99768
13.6103 27.397 9.9996
13.4861 27.3658 9.96572
13.3566 27.2941 9.99585
13.2087 27.2205 9.97943
13.0497 27.1847 10.0106
12.9353 27.1047 10.0094
12.5799 27.3095 9.90158
12.3931 27.2671 9.89671
12.4559 26.9126 9.98318
12.2943 26.8893 10.0004
12.1419 26.7809 9.96811
11.9947 26.6574 9.99295
11.8736 26.5503 9.9944
11.8258 26.4321 10.0029
11.7007 26.2869 10.0039
11.6922 26.1052 10.0047
11.626 25.9398 10.0233
11.4869 25.8802 10.0377
11.4729 25.6903 10.0552
11.376 25.4839 9.96772
11.3366 25.3146 9.98443
11.2652 25.1609 9.97774
11.2188 24.9608 9.98962
11.1601 24.7769 9.99038
11.1378 24.5395 9.98207
11.0748 24.3185 9.97729
11.0073 24.0806 9.9856
10.9611 23.8291 10.031
10.9409 23.563 10.0162
10.9163 23.3143 9.95064
10.9058 23.0257 9.94293
10.9065 22.8166 9.93232
10.8899 22.5761 9.95103
10.8626 22.3008 9.95146
10.8138 22.0232 9.91969
10.7388 21.7381 9.9465
10.7063 21.4336 9.92365
10.7458 21.175 9.95909
10.6939 20.8498 9.97326
10.6529 20.5594 10.0125
10.6401 20.2185 10.0083
10.6395 19.9434 9.95988
10.6313 19.6071 9.94003
10.6773 19.244 9.96255
10.6913 18.9569 9.94435
10.6748 18.6889 9.95536
10.6422 18.4155 9.94836
10.6444 18.0593 9.91214
10.6626 17.8424 9.91413
10.6853 17.5272 9.91043
10.7498 17.2522 9.90226
10.7589 17.0294 9.90685
10.7145 16.7998 9.8821
10.6574 16.5073 9.89716
10.7008 16.2872 9.87474
10.6633 16.0423 9.87943
10.657 15.8022 9.86528
10.6717 15.6225 9.87761
10.6738 15.3634 9.88508
10.7271 15.0946 9.89483
10.7575 14.8535 9.93631
10.774 14.5451 9.93801
10.7775 14.3761 9.93534
10.8326 14.1806 9.91262
10.8684 13.9252 9.91625
10.9161 13.6588 9.92449
10.9527 13.439 9.92636
10.9604 13.0891 9.94594
10.9743 12.8109 9.96715
10.9941 12.5245 9.98256
11.0614 12.2721 9.9876
11.0785 11.9944 10.022
11.1331 11.7104 10.0276
11.152 11.4314 10.0386
11.2121 11.0363 10.0476
11.2304 10.7628 10.0528
11.2824 10.5263 10.0412
11.3326 10.2498 10.0339
11.3622 9.99233 10.0362
11.4384 9.70646 10.0327
11.4999 9.41254 10.0464
11.5324 9.09911 10.0387
11.5383 8.78222 10.036
11.508 8.43741 10.0281
11.5436 8.07463 10.0422
11.5704 7.77734 10.0375
11.5924 7.42794 10.0112
11.695 7.24388 10.0221
11.8203 6.97465 10.0235
11.8555 6.71533 10.0303
11.8723 6.46938 10.015
11.9268 6.25381 9.99692
11.9843 5.99594 10.0072
11.9598 5.69063 10.0184
11.9881 5.42956 10.0048
12.0471 5.1627 10.0242
12.1085 4.91232 10.0104
12.1355 4.6328 10.0336
12.0778 4.38745 10.0273
12.0806 4.14604 10.0207
12.1077 3.87798 10.0402
12.0866 3.60864 10.0333
12.1675 3.3982 10.025
12.1646 3.18623 10.0338
12.1949 2.92169 10.0065
12.194 2.63366 10.0127
12.2108 2.3734 10.0175
12.1362 2.0644 9.99708
12.0775 1.72296 10.0066
12.0461 1.42756 10.0009
12.0065 1.16409 10.0063
11.9703 0.906379 9.98863
11.9027 0.622485 9.96716
11.9125 0.290439 10.0017
11.8967 -0.00698589 9.97103
11.8149 -0.286904 9.95413
11.7364 -0.598879 9.97912
11.8996 -0.983701 10.078
11.6315 -1.14074 9.98947
11.6538 -1.39705 9.96896
11.612 -1.68682 9.97124
11.5437 -1.95222 9.97073
11.4549 -2.25333 9.97817
11.3692 -2.5055 9.95436
11.3158 -2.80603 9.98414
11.4677 -3.21711 10.1213
11.4176 -3.54608 10.1107
11.2728 -3.63624 10.0055
11.2021 -3.92747 10.0185
6.06146 2.88511 9.31407
11.2598 -4.64936 10.1916
11.1769 -4.93287 10.1607
11.1294 -5.28009 10.1829
10.9123 -5.44766 10.0826
10.8311 -5.78708 10.1737
10.8283 -6.04323 10.2344
10.7325 -6.24553 10.3394
10.6936 -6.51635 10.4018
10.6648 -6.86633 10.4971
10.6173 -7.17194 10.5698
10.5544 -7.47445 10.6587
10.57 -7.7439 10.7925
10.5023 -8.04418 10.8685
10.6515 -8.45216 11.1573
10.4764 -8.64029 11.1168
10.3875 -8.95841 11.2542
10.2528 -9.2262 11.4159
10.2586 -9.52893 11.5302
10.2377 -9.83199 11.6702
10.1826 -10.1994 11.8088
10.148 -10.4314 11.963
10.1436 -10.6823 12.0916
10.0806 -10.9981 12.2499
9.97221 -11.2786 12.358
9.92865 -11.5798 12.453
10.1038 -12.0153 12.7019
10.0715 -12.2809 12.8289
10.0554 -12.5794 12.905
10.0531 -12.8808 13.012
9.99185 -13.2257 13.1373
9.95771 -13.5748 13.2511
9.76315 -13.8531 13.1677
9.95543 -14.1862 13.3867
9.94731 -14.4784 13.4925
9.94175 -14.7524 13.5683
9.9008 -15.0719 13.6361
9.85602 -15.3176 13.6387
9.87834 -15.6501 13.7195
9.92758 -15.9144 13.7755
9.89705 -16.3268 13.8065
9.88236 -16.6918 13.8431
9.9131 -17.068 13.9195
9.91819 -17.4432 13.9507
9.93939 -17.7478 14.0003
9.92629 -18.027 14.0268
9.94762 -18.3282 14.0228
9.87857 -18.6787 14.0971
10.3764 -19.4629 13.7592
10.0093 -19.3886 14.1729
10.1168 -19.7292 14.1624
10.5487 -20.5056 13.7542
10.5393 -20.9477 13.747
10.5847 -21.2272 13.6881
10.6637 -21.5357 13.6786
10.7274 -21.9189 13.6986
10.4286 -21.7988 14.1272
10.9267 -22.4363 13.707
11.0338 -22.7186 13.7386
10.9366 -23.2068 13.7221
11.0036 -23.6557 13.7641
11.0056 -23.9171 13.7189
11.0685 -24.265 13.7122
11.1463 -24.5921 13.7007
11.2061 -24.9118 13.653
11.2275 -25.1579 13.6709
11.3039 -25.3829 13.6275
11.3581 -25.5487 13.6272
11.3991 -25.7488 13.6128
11.3983 -25.9754 13.5859
11.518 -26.219 13.6078
11.7601 -26.558 13.5716
11.8238 -26.687 13.5836
11.9364 -26.9374 13.6179
12.1908 -27.1285 13.5881
12.1479 -27.2057 13.534
12.2509 -27.3452 13.5195
12.6031 -27.645 13.4892
12.6013 -27.6323 13.4394
14.7143 -27.6146 13.3513
13.5241 -27.5952 13.4441
16.9312 -25.9997 13.2943
17.5336 -24.2478 12.8811
19.7159 -22.3986 12.908
20.877 -21.3663 12.9726
21.0676 -21.3161 13.0182
21.4897 -20.7434 12.9944
21.9208 -20.2755 13.1927
21.6886 -19.8529 13.0753
22.732 -18.75 13.1043
22.856 -18.4239 13.1383
22.4128 -18.5522 13.2177
23.0885 -17.9083 13.2125
22.4413 -18.158 13.3218
22.5939 -17.8623 13.3272
22.7493 -17.6986 13.334
22.6153 -17.3839 13.3315
22.6931 -17.1605 13.3375
22.6998 -16.9434 13.3266
23.4761 -16.2444 13.3104
23.5704 -15.9517 13.3009
23.6138 -15.62 13.2746
22.894 -15.6422 13.3271
22.9891 -15.2481 13.3588
23.6626 -14.6229 13.3593
23.744 -14.2403 13.3841
23.8999 -13.9397 13.3623
23.9401 -13.5658 13.3388
24.0178 -13.2368 13.3661
24.0051 -12.9015 13.3782
24.0094 -12.5311 13.3793
24.0142 -12.1784 13.3855
23.957 -11.821 13.4039
23.9534 -11.5021 13.4178
23.9891 -11.2038 13.4174
23.9653 -10.9402 13.3975
24.0118 -10.6754 13.417
23.9972 -10.4783 13.4283
24.0352 -10.2322 13.3895
24.1403 -10.0097 13.4167
24.1384 -9.79732 13.4209
24.1114 -9.60037 13.4232
24.1383 -9.37128 13.4009
24.2126 -9.20927 13.4075
24.2366 -9.05697 13.428
24.3523 -8.93103 13.423
24.3088 -8.70391 13.4282
24.4354 -8.5629 13.4064
24.4189 -8.33816 13.4002
24.4358 -8.28328 13.3841
24.4467 -8.08855 13.3883
24.3885 -7.93537 13.3924
24.4498 -7.84482 13.3911
24.4401 -7.68998 13.4098
24.3522 -7.48777 13.4064
24.2804 -7.32481 13.4015
24.2786 -7.21008 13.4128
24.2199 -7.04245 13.4148
24.1859 -6.89945 13.4244
24.1597 -6.81285 13.407
24.1514 -6.69818 13.4003
23.9867 -6.5235 13.4166
24.0488 -6.52812 13.4236
23.9247 -6.48015 13.4091
23.8707 -6.38513 13.4118
23.899 -6.46627 13.4214
24.4289 -6.61322 13.495
23.7755 -6.42868 13.3874
23.7783 -6.46316 13.3586
23.6523 -6.39795 13.3353
23.5153 -6.33132 13.3403
23.4112 -6.30828 13.3685
23.2456 -6.2204 13.3547
23.2099 -6.3176 13.3453
23.1153 -6.33778 13.3479
23.0419 -6.34306 13.3478
23.7337 -6.57463 13.4901
23.6733 -6.57613 13.4428
23.5579 -6.56678 13.3813
22.5672 -6.08722 13.2773
22.4199 -5.94239 13.2369
22.3886 -6.00264 13.244
22.3333 -5.92312 13.2023
22.2536 -5.92627 13.1941
22.1148 -5.86099 13.1808
22.0251 -5.79837 13.1563
21.8955 -5.66598 13.188
21.8072 -5.7003 13.1806
21.7677 -5.71336 13.201
21.7386 -5.75282 13.2376
22.2935 -6.10209 13.2138
22.1756 -6.04814 13.2374
21.5218 -5.78288 13.3142
21.9995 -6.07289 13.2825
21.3119 -5.7056 13.4386
21.1961 -5.72207 13.4876
21.0124 -5.62422 13.5244
20.918 -5.6751 13.5919
20.8544 -5.68807 13.6301
20.7219 -5.67957 13.6505
20.6467 -5.64174 13.6967
20.4371 -5.53958 13.7836
20.2978 -5.47623 13.8244
20.2242 -5.45813 13.8813
19.9784 -5.40328 13.9489
19.8397 -5.37179 14.0115
19.8308 -5.35397 14.0864
19.6984 -5.29847 14.1334
19.6537 -5.31324 14.2045
19.5699 -5.35422 14.2537
19.4406 -5.32701 14.3013
19.2949 -5.23844 14.3399
19.1695 -5.15377 14.3744
19.1228 -5.21214 14.4189
18.9767 -5.19523 14.5002
18.8189 -5.14349 14.5588
18.7986 -5.15594 14.6389
18.6601 -5.18233 14.7125
18.5571 -5.16545 14.7872
18.4228 -5.02382 14.8181
18.0689 -4.83001 14.9046
18.1759 -4.91088 14.8848
18.1145 -4.97111 14.9459
17.846 -4.90076 14.981
17.7469 -4.84843 15.0337
17.6607 -4.78236 15.0781
17.3824 -4.59024 15.1357
17.2466 -4.51856 15.1837
17.2714 -4.52838 15.2418
17.3297 -4.60957 15.3206
17.0807 -4.52082 15.2936
17.0516 -4.5617 15.3423
16.8706 -4.43567 15.3795
16.7667 -4.37021 15.3987
16.6182 -4.3189 15.413
16.5107 -4.26223 15.4329
16.4352 -4.20039 15.4837
16.3286 -4.16087 15.4812
16.2241 -4.13005 15.5156
16.1173 -4.07677 15.5222
16.0249 -4.06978 15.5724
15.9742 -3.92992 15.6215
15.8682 -3.83335 15.6723
15.7907 -3.75579 15.6237
15.7024 -3.58838 15.6916
15.6127 -3.51618 15.6815
15.5176 -3.46219 15.6668
15.3767 -3.34419 15.7227
15.3634 -3.22576 15.707
15.1911 -3.11612 15.7383
15.0697 -2.97914 15.7337
14.8276 1.12916 16.1868
14.8636 -2.72046 15.7539
14.3094 0.654434 16.2822
14.5757 -2.35465 15.7657
14.7292 -1.20396 16.4198
14.514 -1.29789 16.4254
14.4003 -1.29157 15.9669
14.6182 -2.05438 16.4374
14.3413 -2.12515 16.4
14.4449 -1.71922 15.7266
14.2929 -1.44345 15.6968
14.1685 -1.20875 15.7082
14.0137 -0.947127 15.696
13.908 -0.703461 15.707
13.8214 -0.519867 15.7331
13.7271 -0.33195 15.6838
13.6368 -0.054718 15.6967
13.5357 0.237526 15.7131
13.4642 0.533711 15.7294
13.3461 0.754991 15.7349
13.2674 0.99632 15.7062
13.1586 1.2459 15.693
13.0872 1.56172 15.68
13.037 1.84341 15.6932
12.955 2.02 15.6575
12.9689 2.29215 15.651
12.9591 2.58484 15.6834
12.8829 2.80772 15.6875
12.767 3.05148 15.6806
12.7142 3.32704 15.7113
12.7757 3.63688 15.7187
12.7307 3.89734 15.6872
12.6426 4.1555 15.6974
12.6053 4.45692 15.7285
12.5643 4.62317 15.7113
12.5166 4.87932 15.7016
12.422 5.13227 15.6876
12.4545 5.43861 15.6751
12.4302 5.78275 15.6619
12.3983 5.9727 15.645
12.3653 6.33712 15.6558
12.3403 6.58648 15.6618
12.3669 6.74856 15.6459
12.3565 7.01643 15.6513
11.6556 8.31747 15.787
12.4639 10.5678 15.899
12.3518 7.7603 15.6328
12.3746 8.00089 15.6166
12.3106 8.23235 15.6156
11.5148 9.58859 15.7884
12.2923 8.6732 15.5857
12.4098 12.2786 15.9332
11.4507 10.3402 15.8035
12.4219 12.7676 15.8785
11.4797 10.9705 15.8144
12.1708 10.1182 15.5515
12.4763 13.3884 15.8815
10.4738 10.9124 15.9352
11.5154 11.9 15.7609
11.5045 12.2135 15.7575
12.4401 14.4367 15.8402
11.4653 12.6853 15.7459
12.3983 14.8645 15.7887
12.4023 15.0285 15.8097
11.4552 13.1432 15.7909
12.2956 15.4776 15.8196
11.426 13.7909 15.7599
11.4374 14.025 15.7428
11.4987 14.1856 15.7212
11.5367 14.3351 15.7035
11.5642 14.4908 15.6372
11.5497 14.7514 15.632
11.8781 14.3887 15.4681
11.846 14.6028 15.4681
11.8451 14.778 15.4359
11.7343 15.1497 15.4483
11.3895 15.8831 15.6306
11.6685 15.4505 15.4646
11.5715 15.7031 15.4367
11.5357 15.7853 15.4163
11.5205 15.8899 15.3882
11.5315 16.0534 15.4085
11.5102 16.2889 15.3914
11.546 16.4749 15.369
11.4554 16.7696 15.4197
10.9075 17.5654 15.4888
10.8602 17.6679 15.4976
11.2561 16.9595 15.3514
11.1434 17.2192 15.3306
11.1234 17.4245 15.3096
11.0478 17.6393 15.2897
10.9612 17.9113 15.3064
10.8497 18.0868 15.2588
10.5347 18.6141 15.3398
10.6038 18.3342 15.2476
10.5157 18.4765 15.246
10.3822 18.5895 15.2367
10.2563 18.7346 15.2282
10.1406 18.8296 15.2461
9.9981 18.913 15.2098
9.88246 19.0396 15.2323
9.72459 19.0992 15.2011
9.56302 19.1595 15.2361
9.36528 19.2529 15.2539
9.22193 19.3308 15.2422
9.12953 19.3526 15.2387
8.97477 19.4075 15.241
8.81218 19.4701 15.2501
8.65328 19.5232 15.2438
8.49059 19.5765 15.3031
8.3203 19.6105 15.2857
8.13735 19.6539 15.3394
7.97764 19.6008 15.3545
7.77842 19.6948 15.3462
7.61811 19.7811 15.3178
7.47834 19.8078 15.3364
7.272 19.7534 15.3259
7.68392 18.1679 13.4306
6.96606 19.696 15.388
6.7628 19.6807 15.3932
6.61549 19.7111 15.3886
6.35518 19.6859 15.4046
6.11735 19.675 15.3329
5.97369 19.6077 15.3136
5.82127 19.6073 15.3359
5.6525 19.5335 15.3239
5.47193 19.4975 15.3181
5.34076 19.4543 15.3435
5.16816 19.3869 15.3407
4.94715 19.2689 15.3476
4.79951 19.1827 15.3932
4.68413 19.1184 15.369
4.47745 19.0042 15.3955
4.37392 18.9016 15.4109
4.13565 18.7759 15.4081
3.94747 18.6516 15.423
3.80736 18.5421 15.4197
3.63651 18.442 15.4545
3.45581 18.2626 15.4808
3.26707 18.1348 15.4942
3.17361 18.0732 15.4874
3.02495 17.9431 15.5233
2.89118 17.7783 15.5368
2.73818 17.6526 15.5499
2.55982 17.5043 15.585
2.45868 17.3202 15.6006
2.24166 17.1642 15.6134
2.1354 16.9228 15.6483
2.00096 16.7521 15.6549
1.72967 16.6769 15.9548
1.79756 16.5452 15.7168
1.61519 16.3822 15.7034
1.43576 16.1658 15.7586
1.29426 15.9286 15.7707
1.20941 15.768 15.7934
1.0334 15.4992 15.794
0.875729 15.3002 15.7731
0.799682 15.1091 15.8029
0.685705 14.983 15.8148
0.568686 14.8708 15.8424
0.367392 14.669 15.8491
0.266422 14.4374 15.8923
0.109591 14.2372 15.9262
0.010829 13.9959 15.9109
-0.143125 13.8461 15.9323
-0.278381 13.5073 15.9541
-0.472357 13.3309 15.9364
-0.591244 13.0847 15.9317
-0.819953 12.9549 15.956
-0.973098 12.8436 15.9753
-1.11104 12.6082 15.9767
-1.26146 12.4009 15.9946
-1.40752 12.0367 16.0014
-2.16051 10.8203 15.9129
-1.95221 11.2491 16.0679
-2.16081 11.0824 16.0526
-2.72466 10.2821 15.9706
-2.87716 10.0712 16.002
-3.03737 9.95055 16.028
-3.31715 9.6783 16.1007
-3.50806 9.31319 16.1019
-3.69262 9.13534 16.1233
-3.80307 8.96129 16.1423
-3.9422 8.88069 16.1871
-4.06564 8.74802 16.2057
-4.2418 8.63445 16.2091
-4.40466 8.45735 16.2148
-4.62716 8.23014 16.2173
-4.77676 8.11664 16.2629
-5.0124 7.94324 16.2723
-5.2079 7.83569 16.296
-5.31215 7.84403 16.3495
-5.41989 7.77767 16.3274
-5.61824 7.66777 16.3195
-5.79187 7.5699 16.3338
-5.99495 7.43905 16.3413
-6.20284 7.28165 16.3269
-6.43366 7.09358 16.2982
-6.55537 7.00956 16.2699
-6.80776 6.86225 16.2333
-7.06305 6.63921 16.2381
-7.22287 6.53532 16.2154
-7.45036 6.4377 16.1892
-7.68805 6.25137 16.1831
-7.93017 6.19992 16.1891
-8.1586 6.05478 16.1454
-8.4205 5.91849 16.1129
-8.66776 5.89565 16.1179
-8.90918 5.85481 16.1566
-9.19051 5.68041 16.144
-9.56241 5.34536 16.1256
-9.80537 5.32245 16.1352
-10.1503 5.1134 16.1999
-10.186 5.17195 16.1017
-10.4542 5.0139 16.1507
-10.662 4.89817 16.1278
-10.9365 4.77169 16.1092
-11.32 4.4548 16.1188
-11.452 4.41884 16.1377
-11.6786 4.27894 16.0968
-11.9435 4.15451 16.0821
-12.2169 3.92467 16.0385
-12.4398 3.7846 16.0586
-12.6331 3.66599 16.1004
-13.0147 3.37313 16.0746
-13.2244 3.26689 16.0162
-13.5137 3.04146 16.0537
-13.8057 2.77497 16.0927
-14.0406 2.52384 16.0743
-14.2081 2.39179 16.0538
-14.4327 2.22192 16.0699
-14.3778 2.36573 16.1599
-14.5826 2.0872 16.1674
-15.3215 1.65247 16.1317
-15.506 1.33146 16.1577
-15.6894 1.13917 16.1871
-15.866 0.91864 16.1843
-15.8593 0.816734 16.193
-15.9663 0.571651 16.2254
-15.7467 0.0373566 16.1911
-16.3437 0.108511 16.2803
-16.6334 -0.0283731 16.3055
-16.7777 -0.274265 16.3084
-16.8879 -0.442008 16.3061
-16.9949 -0.640813 16.2789
-17.0823 -0.935731 16.2519
-17.1066 -1.13041 16.2736
-16.5639 -1.97263 16.2367
-17.4654 -1.71417 16.3292
-17.5358 -1.9378 16.3348
-16.5995 -2.76419 16.2816
-17.5601 -2.66003 16.3679
-17.49 -2.95433 16.3605
-17.3903 -3.23261 16.3583
-17.3273 -3.63669 16.3399
-17.6123 -3.8834 16.4029
-16.6708 -4.78218 16.3511
-16.7474 -5.06621 16.3845
-16.717 -5.43514 16.4292
-16.7324 -5.63664 16.4152
-16.6889 -5.92408 16.4395
-16.6151 -6.22023 16.4464
-16.4591 -6.50984 16.4638
-17.9209 -4.38005 16.878
-16.2777 -7.0213 16.4488
-16.0035 -7.24843 16.4486
-16.7064 -6.99832 16.4807
-16.0193 -7.73114 16.4802
-15.8982 -7.99129 16.4445
-15.7741 -8.16708 16.4627
-18.3661 -4.70982 16.7128
-17.5121 -6.10187 16.8859
-15.4941 -9.09812 16.5083
-17.2711 -6.68698 16.8531
-17.2219 -6.94558 16.8946
-17.1048 -7.19693 16.9005
-17.0451 -7.40126 16.9035
-16.8857 -7.61494 16.9272
-14.9461 -10.4459 16.4938
-16.682 -8.16638 16.9242
-14.6433 -11.0965 16.5398
-14.6164 -11.2815 16.5779
-14.5085 -11.5184 16.615
-14.4021 -11.7759 16.6119
-16.187 -9.46923 17.0001
-16.062 -9.64072 16.9914
-15.9205 -9.91937 17.0282
-15.8308 -10.1423 17.0175
-14.7558 -12.1674 16.6294
-15.6329 -10.5084 16.985
-14.5036 -12.605 16.7028
-13.5638 -13.476 16.6184
-14.3105 -13.011 16.7256
-15.0642 -11.4383 16.9369
-14.9791 -11.649 16.943
-14.8849 -11.7506 17.0334
-14.8718 -11.8856 17.0564
-14.7548 -11.9775 16.9976
-14.5198 -12.3679 17.0218
-14.4944 -12.4822 17.1064
-13.2506 -14.5238 16.7006
-14.179 -12.8935 17.0989
-14.0245 -13.1653 17.0966
-13.8431 -13.3858 17.099
-13.6438 -13.5978 17.1037
-12.4767 -15.4608 16.6868
-13.3664 -13.9212 17.0995
-12.068 -15.8917 16.6879
-12.8697 -14.5733 17.0469
-11.8595 -16.1682 16.6315
-11.7647 -16.3015 16.6294
-10.6803 -17.3956 16.5049
-12.319 -15.2281 16.9212
-10.292 -17.7731 16.5731
-10.6796 -17.2907 16.569
-11.6001 -15.7959 16.9163
-11.5332 -15.8359 16.9034
-11.3437 -15.962 16.9133
-11.1644 -16.0958 16.9122
-10.9757 -16.3084 16.8598
-10.7858 -16.371 16.8637
-10.628 -16.4914 16.8522
-10.5486 -16.6611 16.8853
-10.3431 -16.7809 16.8804
-10.1929 -16.9524 16.9102
-9.07246 -18.3615 16.5861
-8.9029 -18.4779 16.5983
-9.73429 -17.2585 16.9272
-9.55509 -17.3761 16.974
-9.4886 -17.429 17.0061
-9.11918 -17.7791 16.9941
-7.90424 -19.2287 16.7128
-8.73407 -18.0877 17.0686
-8.5529 -18.1873 17.0578
-7.38626 -19.5392 16.7195
-8.24509 -18.4242 17.0677
-7.05398 -19.7683 16.7686
-7.88292 -18.6125 17.125
-7.65451 -18.7465 17.1591
-7.017 -21.1211 16.7714
-7.56487 -18.6472 17.3284
-7.24407 -18.8544 17.3477
-6.90581 -18.995 17.322
-4.50737 -21.6725 16.7369
-4.29576 -21.8163 16.7507
-5.12726 -20.6613 16.9688
-4.86817 -20.8325 16.9887
-5.93867 -19.5821 17.3288
-4.43233 -21.1595 17.0123
-3.26922 -22.6003 16.8786
-5.22809 -20.1147 17.3104
-2.83699 -22.9058 16.8495
-2.62225 -23.0771 16.8224
-2.19061 -23.321 16.9255
-1.97432 -23.4566 16.8924
-1.75243 -23.6012 16.8821
-1.55427 -23.7202 16.8915
-1.14322 -23.8863 16.8871
-0.870359 -24.0129 16.9039
-1.49252 -22.8227 17.0442
-0.507849 -24.2448 16.9015
-2.21444 -21.9941 17.3261
-2.0233 -22.0654 17.3164
-1.84168 -22.2064 17.3423
-1.61259 -22.2901 17.3903
-1.39082 -22.3684 17.4525
0.000225706 -23.4735 17.1174
0.0958101 -23.5026 17.148
1.07798 -24.8894 17.0132
1.33943 -23.0316 17.2901
1.5366 -24.9669 17.0749
1.04423 -23.7266 17.1784
0.203839 -22.8973 17.4458
1.49891 -23.8099 17.1902
1.68251 -23.8366 17.2228
0.859463 -22.9254 17.4861
1.11464 -22.8619 17.4981
1.34674 -22.7817 17.4912
1.57467 -22.8501 17.5161
3.59147 -22.9017 17.5206
1.87485 -22.8385 17.4693
2.18037 -22.9306 17.531
3.63024 -22.4006 17.4783
4.56516 -23.8452 17.2169
6.41865 -21.0857 17.4068
6.70772 -21.0155 17.3879
7.06782 -20.755 17.361
7.34814 -20.6194 17.3924
7.59545 -20.472 17.4037
7.81105 -20.3047 17.428
8.14568 -20.1288 17.4801
8.47242 -19.9054 17.4816
8.71702 -19.6907 17.5037
8.81241 -19.5526 17.4892
8.98209 -19.3235 17.4751
9.14712 -19.1521 17.4921
9.32444 -18.9754 17.4888
9.48313 -18.6395 17.4836
9.70835 -18.3192 17.45
9.48551 -18.4732 17.3421
9.57818 -18.1748 17.3404
9.79057 -17.5243 17.323
9.88947 -17.2866 17.3207
10.6001 -16.1561 17.3469
10.6098 -15.8473 17.3195
10.6793 -15.5706 17.3501
10.7369 -15.2864 17.3972
10.8165 -15.053 17.4146
10.9083 -14.832 17.4245
11.0112 -14.5243 17.405
11.061 -14.2263 17.4057
11.1223 -14.0441 17.3979
11.1452 -13.7991 17.3751
11.1883 -13.5068 17.3398
11.1867 -13.2549 17.3318
11.1589 -12.9509 17.3108
11.1771 -12.6831 17.3003
11.185 -12.4278 17.3179
11.2206 -12.1314 17.3087
11.1906 -11.8034 17.2936
11.2264 -11.4429 17.2741
11.2575 -11.1191 17.3206
11.271 -10.8298 17.2694
11.2602 -10.5579 17.265
11.3247 -10.1979 17.2734
11.3157 -9.82593 17.2386
11.3624 -9.51893 17.2469
11.4075 -9.21796 17.2363
11.4729 -8.89007 17.2347
11.4676 -8.58529 17.2471
10.8618 -8.89054 17.1957
11.5503 -7.95718 17.2242
10.8854 -8.4135 17.2307
10.9253 -8.17142 17.269
11.171 -7.85906 17.2887
11.8376 -7.04866 17.2553
11.2282 -7.42599 17.2758
11.3797 -6.90068 17.2566
12.2898 -5.77317 17.1709
12.4025 -5.42992 17.1941
12.4646 -5.09464 17.1272
12.5301 -4.75699 17.1488
12.5787 -4.47537 17.1484
12.7839 -4.16929 17.1353
12.9819 -3.47815 17.1667
13.0494 -3.15299 17.1856
13.245 -2.69006 17.1665
13.2928 -2.39973 17.2024
13.9042 -0.76171 17.1946
14.1634 -0.216576 17.1738
14.2617 0.0808407 17.1706
14.3392 0.783582 17.5318
14.7313 0.654837 17.2495
14.7108 0.932063 17.255
14.7128 1.68329 17.5232
14.7517 2.08338 17.5224
15.0151 1.95614 17.1739
14.9983 2.63219 17.4883
15.0639 2.87069 17.4752
15.1836 3.11815 17.4973
15.2522 3.44226 17.489
15.261 3.81679 17.5103
15.4089 4.14596 17.562
15.4789 4.39565 17.575
15.5176 4.6213 17.5948
15.6209 4.90352 17.6041
15.6741 5.04773 17.5897
15.7525 5.35623 17.5861
15.7507 5.65832 17.6197
15.7691 5.82922 17.6604
15.8117 6.02075 17.6548
15.8156 6.25702 17.5986
15.8876 6.48098 17.6142
15.9745 6.7416 17.6262
16.0043 6.89985 17.6903
16.0305 7.18796 17.7246
16.0215 7.37608 17.7669
16.0525 7.5531 17.7202
16.4345 7.34536 17.5528
16.0889 7.96576 17.6544
16.0988 8.10567 17.6407
16.5034 7.89165 17.6121
16.4999 8.03798 17.6016
16.5541 8.18845 17.6278
16.5407 8.24083 17.6281
16.0076 9.14122 17.9336
16.6308 8.64942 17.7263
16.1028 9.85886 17.9597
16.1293 10.1744 17.9412
16.1918 10.4395 17.9457
16.1965 10.6131 17.9683
16.2066 10.7965 17.9818
16.191 11.0121 18.0135
16.278 11.2036 18.0157
16.2624 11.4232 18.0393
16.3104 11.6398 18.0442
16.3504 11.863 18.0754
16.3681 12.0676 18.0132
16.3843 12.273 18.0216
16.412 12.5336 17.9779
16.4079 12.8124 17.9982
16.3698 13.0469 17.982
17.215 12.3333 17.8177
17.1926 12.5688 17.7778
17.1515 12.7402 17.7391
17.1043 13.0556 17.7004
17.0845 13.3207 17.6636
17.0172 13.6962 17.6915
16.9471 13.963 17.6766
16.9561 14.1732 17.6828
16.1366 15.3608 17.7678
16.0669 15.6781 17.7205
15.9153 16.0628 17.6868
15.8303 16.3897 17.6671
16.6245 15.6084 17.5837
16.5958 15.8244 17.5868
16.5182 16.0257 17.5882
16.4184 16.387 17.612
16.4711 16.9552 17.606
16.3518 17.1481 17.5935
16.2928 17.2445 17.5717
16.1813 17.4813 17.5907
16.0653 17.6626 17.5596
15.9384 17.8609 17.5115
15.8706 18.0302 17.5095
15.7783 18.2658 17.4903
15.6489 18.603 17.4792
15.5859 18.823 17.4556
15.4584 19.0697 17.4692
15.3863 19.3047 17.5064
15.2707 19.5739 17.5035
15.1316 19.8613 17.4712
15.031 20.0732 17.4242
14.9469 20.3437 17.4425
14.8266 20.5753 17.4311
14.6899 20.8098 17.4034
14.5342 21.0312 17.3959
14.468 21.2493 17.4082
14.3111 21.5063 17.3796
14.1442 21.7798 17.4085
13.9768 21.9639 17.3981
13.8252 22.1765 17.4107
13.6215 22.3702 17.4307
13.4287 22.5368 17.3748
12.5074 23.8274 17.3127
12.3823 23.9478 17.3471
12.2272 24.0648 17.3395
11.9506 24.2579 17.328
11.7858 24.3441 17.2975
11.6037 24.5038 17.3089
11.4736 24.6186 17.3026
11.2922 24.5973 17.3364
11.0662 24.7536 17.3223
10.9293 24.8481 17.3389
10.6861 24.998 17.3384
10.5004 25.0979 17.3532
10.3153 25.1899 17.3522
10.2144 25.2666 17.3557
10.0971 25.2601 17.3995
9.88929 25.4109 17.3921
9.7473 25.4416 17.3726
9.50047 25.6263 17.384
9.26455 25.697 17.3879
9.05202 25.7527 17.3679
8.82481 25.8781 17.4146
8.63894 25.9405 17.4257
8.45735 25.9565 17.4342
8.23701 26.0015 17.428
8.0918 26.05 17.457
8.2598 25.619 17.6114
7.70567 26.064 17.4251
7.83509 25.7699 17.6439
7.32828 26.114 17.413
7.12291 26.2585 17.4429
7.30049 25.9626 17.6739
7.03674 25.9665 17.6566
6.81804 25.997 17.7204
6.65808 26.0155 17.7099
6.39202 26.0429 17.7216
6.15782 26.1345 17.6013
5.89251 26.2377 17.64
5.46427 26.4959 17.4227
5.47868 26.3699 17.5559
5.29571 26.4264 17.5054
5.14734 26.4528 17.535
4.88493 26.507 17.5713
4.60309 26.4541 17.5521
4.38066 26.4396 17.562
4.21129 26.4513 17.5103
