ply
format ascii 1.0
element vertex 1873
property float x
property float y
property float z
element face 0
property list uchar int vertex_index
end_header
-0.314636 12.0334 -0.00519291
-0.326814 12.052 0.0042337
-0.326814 12.052 0.0042337
-0.326814 12.052 0.0042337
-0.314636 12.0334 -0.00519291
-0.313907 12.0316 0.0041189
-0.301682 12.0471 0.0226757
-0.301682 12.0471 0.0226757
-0.325158 12.0516 0.00378652
-0.325158 12.0516 0.00378652
-0.325158 12.0516 0.00378652
-0.325158 12.0516 0.00378652
-0.325158 12.0516 0.00378652
-0.314636 12.0334 -0.00519291
-0.314636 12.0334 -0.00519291
-0.314636 12.0334 -0.00519291
-0.314636 12.0334 -0.00519291
-0.314636 12.0334 -0.00519291
-0.314636 12.0334 -0.00519291
-0.314636 12.0334 -0.00519291
-0.314636 12.0334 -0.00519291
-0.314636 12.0334 -0.00519291
-0.314636 12.0334 -0.00519291
-0.314636 12.0334 -0.00519291
-0.314636 12.0334 -0.00519291
-0.314636 12.0334 -0.00519291
-0.315561 12.032 0.00456274
-0.315561 12.032 0.00456274
-0.316473 12.0305 0.0143247
-0.314636 12.0334 -0.00519291
-0.314636 12.0334 -0.00519291
-0.314636 12.0334 -0.00519291
-0.336182 12.075 -0.0155955
-0.324945 12.055 -0.0152693
-0.336182 12.075 -0.0155955
-0.336182 12.075 -0.0155955
-0.336182 12.075 -0.0155955
-0.336182 12.075 -0.0155955
-0.335454 12.0731 -0.00629191
-0.336182 12.075 -0.0155955
-0.336182 12.075 -0.0155955
-0.335454 12.0731 -0.00629191
-0.335454 12.0731 -0.00629191
-0.346984 12.056 -0.0155131
-0.327353 12.0771 -0.0245145
-0.346984 12.056 -0.0155131
-0.335747 12.0359 -0.015187
-0.346984 12.056 -0.0155131
-0.346984 12.056 -0.0155131
-0.346984 12.056 -0.0155131
-0.347928 12.0545 -0.00576138
-0.336182 12.075 -0.0155955
-0.347928 12.0545 -0.00576138
-0.347928 12.0545 -0.00576138
-0.316335 12.0537 -0.00514454
-0.324611 12.0883 0.0302753
-0.319548 12.0166 0.0627477
-0.328176 12.01 0.0241926
-0.335747 12.0359 -0.015187
-0.315808 12.0942 -0.0153004
-0.303857 12.0724 -0.00566642
-0.313755 12.1011 0.0243233
-0.350931 12.0564 0.0868924
-0.319258 12.0492 0.0579663
-0.315394 12.0552 -0.0148914
-0.289578 12.0826 0.0408929
-0.29879 12.0634 0.0405957
-0.314441 12.0567 -0.024632
-0.314441 12.0567 -0.024632
-0.313717 12.0549 -0.0153229
-0.335747 12.0359 -0.015187
-0.333341 12.0678 0.021661
-0.288918 12.0809 0.0502422
-0.326618 12.0752 -0.0152173
-0.315394 12.0552 -0.0148914
-0.315394 12.0552 -0.0148914
-0.314671 12.0533 -0.00558276
-0.316335 12.0537 -0.00514454
-0.316335 12.0537 -0.00514454
-0.315081 12.0924 -0.00599664
-0.315081 12.0924 -0.00599664
-0.315394 12.0552 -0.0148914
-0.326618 12.0752 -0.0152173
-0.335747 12.0359 -0.015187
-0.335747 12.0359 -0.015187
-0.335747 12.0359 -0.015187
-0.31613 12.057 -0.024193
-0.316547 12.0961 -0.0245971
-0.358945 12.0779 -0.0251311
-0.327353 12.0771 -0.0245145
-0.326618 12.0752 -0.0152173
-0.326618 12.0752 -0.0152173
-0.337438 12.0562 -0.0151336
-0.346984 12.056 -0.0155131
-0.346984 12.056 -0.0155131
-0.346984 12.056 -0.0155131
-0.34772 12.0578 -0.0248102
-0.346984 12.056 -0.0155131
-0.35821 12.076 -0.0158384
-0.346984 12.056 -0.0155131
-0.347928 12.0545 -0.00576138
-0.347204 12.0526 0.00354237
-0.358741 12.0355 -0.00567406
-0.336689 12.0344 -0.00543422
-0.324945 12.055 -0.0152693
-0.324945 12.055 -0.0152693
-0.336182 12.075 -0.0155955
-0.346984 12.056 -0.0155131
-0.346984 12.056 -0.0155131
-0.346984 12.056 -0.0155131
-0.346984 12.056 -0.0155131
-0.346984 12.056 -0.0155131
-0.335747 12.0359 -0.015187
-0.336689 12.0344 -0.00543422
-0.336689 12.0344 -0.00543422
-0.336182 12.075 -0.0155955
-0.336397 12.0716 0.00345501
-0.336182 12.075 -0.0155955
-0.34626 12.0541 -0.00620892
-0.34626 12.0541 -0.00620892
-0.34561 12.0585 0.00894639
-0.347284 12.0589 0.00939375
-0.338532 12.0315 0.0140901
-0.325886 12.0535 -0.00552096
-0.336182 12.075 -0.0155955
-0.336182 12.075 -0.0155955
-0.336182 12.075 -0.0155955
-0.346984 12.056 -0.0155131
-0.335747 12.0359 -0.015187
-0.335747 12.0359 -0.015187
-0.335747 12.0359 -0.015187
-0.324217 12.0531 -0.00596141
-0.336397 12.0716 0.00345501
-0.336182 12.075 -0.0155955
-0.336182 12.075 -0.0155955
-0.336182 12.075 -0.0155955
-0.346984 12.056 -0.0155131
-0.346984 12.056 -0.0155131
-0.346984 12.056 -0.0155131
-0.335023 12.0341 -0.00587845
-0.335023 12.0341 -0.00587845
-0.335747 12.0359 -0.015187
-0.336182 12.075 -0.0155955
-0.336182 12.075 -0.0155955
-0.336182 12.075 -0.0155955
-0.336182 12.075 -0.0155955
-0.336182 12.075 -0.0155955
-0.346984 12.056 -0.0155131
-0.335023 12.0341 -0.00587845
-0.335023 12.0341 -0.00587845
-0.335023 12.0341 -0.00587845
-0.325886 12.0535 -0.00552096
-0.336182 12.075 -0.0155955
-0.337125 12.0735 -0.00584814
-0.346984 12.056 -0.0155131
-0.335747 12.0359 -0.015187
-0.335747 12.0359 -0.015187
-0.335747 12.0359 -0.015187
-0.335747 12.0359 -0.015187
-0.347502 12.0154 -0.00534694
-0.335747 12.0359 -0.015187
-0.347928 12.0545 -0.00576138
-0.347928 12.0545 -0.00576138
-0.346984 12.056 -0.0155131
-0.346984 12.056 -0.0155131
-0.327103 12.036 -0.00616373
-0.315871 12.016 -0.00583742
-0.347502 12.0154 -0.00534694
-0.315611 12.0518 0.00416369
-0.314676 12.0566 0.00918001
-0.303863 12.0756 0.00910078
-0.315086 12.0956 0.00877318
-0.313898 12.0529 0.00262756
-0.324721 12.0338 0.00271135
-0.345964 12.0914 0.00268473
-0.314366 12.0906 0.00331414
-0.334738 12.0713 0.0030187
-0.334738 12.0713 0.0030187
-0.334738 12.0713 0.0030187
-0.335034 12.0742 0.0279192
-0.335759 12.0793 0.0333739
-0.336494 12.0811 0.0240738
-0.347416 12.0982 -0.00115228
-0.325509 12.0419 -0.000763372
-0.325509 12.0419 -0.000763372
-0.325509 12.0419 -0.000763372
-0.31289 12.0244 0.0240247
-0.31729 12.0205 0.0774221
-0.318167 12.0159 0.0724336
-0.324782 12.0401 0.00854465
-0.314913 12.0608 0.0329732
-0.315342 12.0565 -0.0159977
-0.315342 12.0565 -0.0159977
-0.314613 12.0579 0.0080775
-0.326161 12.0408 -0.001152
-0.325432 12.0389 0.00815626
-0.312486 12.0525 0.0360428
-0.298588 12.0256 0.0737845
-0.303385 12.0379 0.00840456
-0.315234 12.0236 0.024067
-0.30347 12.0442 0.0142424
-0.315346 12.0598 -0.00123017
-0.314613 12.0579 0.0080775
-0.326378 12.0342 0.00314552
-0.325433 12.0357 -0.0066054
-0.325433 12.0357 -0.0066054
-0.326379 12.0374 0.0179055
-0.325332 12.0027 0.0334589
-0.324781 12.0433 0.0233068
-0.336728 12.0652 0.013683
-0.35757 12.0837 0.0140878
-0.325913 12.0842 0.013607
-0.303683 12.0408 0.0332966
-0.315642 12.0594 0.0089014
-0.314281 12.0219 -0.000442692
-0.324781 12.0433 0.0233068
-0.324782 12.0401 0.00854465
-0.313245 12.0573 0.0177782
-0.302433 12.0763 0.0176972
-0.313245 12.0573 0.0177782
-0.313963 12.0591 0.0084637
-0.313245 12.0573 0.0177782
-0.313963 12.0591 0.0084637
-0.324782 12.0401 0.00854465
-0.302735 12.0391 0.00878873
-0.302017 12.0372 0.0181076
-0.334086 12.0757 0.0181746
-0.302017 12.0372 0.0181076
-0.334086 12.0757 0.0181746
-0.302735 12.0391 0.00878873
-0.313554 12.02 0.00886965
-0.323567 12.0575 0.00919153
-0.302735 12.0391 0.00878873
-0.324782 12.0401 0.00854465
-0.314912 12.0576 0.0182084
-0.323567 12.0575 0.00919153
-0.324782 12.0401 0.00854465
-0.302735 12.0391 0.00878873
-0.313554 12.02 0.00886965
-0.324782 12.0401 0.00854465
-0.302735 12.0391 0.00878873
-0.325509 12.0419 -0.000763372
-0.313554 12.02 0.00886965
-0.314501 12.0185 0.0186197
-0.326458 12.0404 0.00898611
-0.314912 12.0576 0.0182084
-0.325732 12.0385 0.0182937
-0.294867 12.0396 0.00959453
-0.327395 12.0389 0.0187419
-0.305359 12.0578 0.0185809
-0.315435 12.017 0.0283761
-0.304615 12.0361 0.0282864
-0.305078 12.0738 0.0289708
-0.315228 12.0204 0.00930781
-0.325509 12.0419 -0.000763372
-0.325509 12.0419 -0.000763372
-0.325732 12.0385 0.0182937
-0.325509 12.0419 -0.000763372
-0.314281 12.0219 -0.000442692
-0.325509 12.0419 -0.000763372
-0.314281 12.0219 -0.000442692
-0.336334 12.0229 -0.000682449
-0.325509 12.0419 -0.000763372
-0.316101 12.0971 0.00959609
-0.346558 12.057 0.0186958
-0.314913 12.0608 0.0329732
-0.327859 12.0799 0.0341954
-0.314253 12.0652 0.0481336
-0.313962 12.0623 0.0232302
-0.295808 12.0414 0.0341083
-0.313963 12.0591 0.0084637
-0.325733 12.0418 0.0330541
-0.314503 12.0218 0.0333775
-0.303682 12.0375 0.0185344
-0.325509 12.0419 -0.000763372
-0.325509 12.0419 -0.000763372
-0.314501 12.0185 0.0186197
-0.326458 12.0404 0.00898611
-0.326458 12.0404 0.00898611
-0.326458 12.0404 0.00898611
-0.325509 12.0419 -0.000763372
-0.324781 12.0433 0.0233068
-0.325733 12.0418 0.0330541
-0.334139 12.0819 0.0240328
-0.324782 12.0401 0.00854465
-0.334804 12.0775 0.00886563
-0.324782 12.0401 0.00854465
-0.324781 12.0433 0.0233068
-0.345364 12.1019 0.0237124
-0.324782 12.0401 0.00854465
-0.324117 12.0444 0.0237043
-0.34561 12.0585 0.00894639
-0.336058 12.0421 0.0244739
-0.325585 12.0481 0.00509872
-0.293257 12.0487 0.029771
-0.304509 12.0489 0.0298432
-0.324845 12.0462 0.014398
-0.293477 12.0454 0.048821
-0.283387 12.0663 0.0394333
-0.324116 12.0477 0.0384669
-0.312889 12.0276 0.0387847
-0.303024 12.0452 0.0484525
-0.313843 12.0261 0.0485311
-0.314576 12.028 0.0392223
-0.324849 12.0495 0.029162
-0.324849 12.0495 0.029162
-0.313298 12.0667 0.0383926
-0.324849 12.0495 0.029162
-0.314034 12.0685 0.0290883
-0.324116 12.0477 0.0384669
-0.324116 12.0477 0.0384669
-0.303738 12.0669 0.0387629
-0.350407 12.0671 0.107902
-0.350311 12.0574 0.0636131
-0.345683 12.068 0.0295729
-0.345683 12.068 0.0295729
-0.345683 12.068 0.0295729
-0.345683 12.068 0.0295729
-0.344714 12.0695 0.019833
-0.344714 12.0695 0.019833
-0.34495 12.0661 0.0388723
-0.31983 12.0953 0.085321
-0.329979 12.0745 0.0947383
-0.324117 12.0444 0.0237043
-0.324117 12.0444 0.0237043
-0.324845 12.0462 0.014398
-0.324845 12.0462 0.014398
-0.31457 12.0247 0.0244626
-0.324171 12.0538 0.0443333
-0.313235 12.0398 0.0843312
-0.314469 12.0443 0.13379
-0.347976 12.0902 0.208385
-0.347597 12.1034 0.278178
-0.401338 12.1272 0.327677
-0.434933 12.1761 0.417361
-0.455691 12.2068 0.531949
-0.46051 12.2215 0.681882
-0.492774 12.2736 0.785301
-0.517563 12.2873 0.919153
-0.622879 12.3821 1.07889
-0.787582 12.5007 1.29726
-0.637049 12.3871 1.39077
-0.725317 12.4303 1.51831
-0.878603 12.5912 1.64901
-1.04687 12.6766 1.88436
-1.13041 12.7336 2.10853
-1.17266 12.7999 2.30045
-1.28414 12.864 2.58181
-1.55794 13.044 2.84874
-1.705 13.0423 3.05271
-1.7354 13.1049 3.30246
-1.87454 13.133 3.49385
-2.02638 13.2136 3.74864
-2.10556 13.3235 3.92636
-2.27472 13.3581 4.13915
-2.34833 13.3723 4.31951
-2.47638 13.3381 4.44255
-2.65012 13.3729 4.64501
-2.80378 13.4329 4.81065
-2.95527 13.4375 4.98892
-3.10645 13.4738 5.13684
-3.26784 13.4507 5.26909
-3.4651 13.399 5.40754
-3.66682 13.2939 5.52506
-3.8174 13.235 5.65626
-3.96905 13.2026 5.74635
-4.06708 13.176 5.83193
-4.19903 13.1774 5.88773
-4.30642 13.1116 5.99789
-4.47935 13.0294 6.0874
-4.57586 12.9503 6.11241
-4.64556 12.9106 6.22164
-4.74283 12.863 6.30276
-4.81983 12.8064 6.34587
-4.88851 12.7514 6.33698
-4.95379 12.7118 6.36514
-5.0685 12.559 6.38524
-5.13715 12.5601 6.42757
-5.18992 12.4976 6.45077
-5.26295 12.4024 6.45173
-5.3261 12.3616 6.44107
-5.42476 12.2348 6.48848
-5.51294 12.2027 6.48099
-5.62632 12.0095 6.44071
-5.72945 11.923 6.41605
-5.76851 11.864 6.39623
-5.79157 11.8491 6.37822
-5.91452 11.7598 6.35492
-5.99819 11.6944 6.30202
-6.04116 11.6377 6.28589
-6.10885 11.5964 6.25192
-6.14951 11.5392 6.23186
-6.28302 11.3862 6.20903
-6.45143 11.2444 6.20977
-6.53362 11.172 6.17012
-6.64381 11.0733 6.16022
-6.69324 11.0554 6.14008
-6.78674 11.0091 6.12153
-6.87912 10.929 6.12227
-7.00099 10.8018 6.1048
-7.072 10.7526 6.10545
-7.13127 10.7123 6.08746
-7.24224 10.6535 6.08838
-7.38698 10.5442 6.10569
-7.4906 10.4473 6.0947
-7.5703 10.423 6.11162
-7.67245 10.3219 6.10298
-7.76642 10.2832 6.10314
-7.84716 10.218 6.13445
-7.96841 10.1416 6.14455
-8.05268 10.114 6.15618
-8.14489 10.0328 6.17079
-8.25442 9.92353 6.19107
-8.35997 9.86867 6.19317
-8.4436 9.79902 6.19783
-8.54365 9.70387 6.2153
-8.63588 9.66608 6.24781
-8.78851 9.58451 6.25559
-8.85919 9.52962 6.25591
-8.96991 9.46261 6.2702
-9.07459 9.40911 6.27938
-9.17634 9.31364 6.31493
-9.24469 9.30166 6.31515
-9.38898 9.2349 6.31233
-9.46982 9.1665 6.33842
-9.52202 9.18139 6.32594
-9.61234 9.14091 6.33511
-9.70171 9.05881 6.33574
-9.83648 8.96466 6.36158
-9.88408 8.93792 6.37872
-9.96521 8.86905 6.40179
-10.0706 8.85966 6.40872
-10.1721 8.80656 6.44355
-10.2432 8.75203 6.45712
-10.2809 8.73898 6.46985
-10.3872 8.67051 6.49165
-10.4676 8.68834 6.55055
-10.5636 8.60817 6.64633
-10.6515 8.56782 6.64644
-10.7011 8.49888 6.60404
-10.825 8.46327 6.62929
-10.9094 8.44039 6.6806
-11.0005 8.44299 6.71041
-11.0616 8.40272 6.74535
-11.1273 8.45273 6.7737
-11.2367 8.38331 6.82219
-11.2951 8.34309 6.8653
-11.4379 8.34006 6.92544
-11.4848 8.35464 6.96812
-11.5534 8.34009 7.00303
-11.6318 8.37384 7.06288
-11.6764 8.44836 7.12225
-11.8065 8.41579 7.1695
-11.8681 8.41866 7.21231
-11.912 8.45208 7.25913
-12.0155 8.44422 7.31929
-12.1021 8.42401 7.36232
-12.1765 8.5019 7.39967
-12.1935 8.56965 7.45579
-12.2917 8.5188 7.50765
-12.3333 8.51022 7.58098
-12.368 8.55519 7.61501
-12.4189 8.5255 7.66323
-12.4479 8.60685 7.74494
-12.5174 8.66176 7.77373
-12.5952 8.65487 7.82552
-12.6374 8.68607 7.89838
-12.6904 8.69891 7.93743
-12.8247 8.79917 7.96967
-12.9151 8.98037 8.01322
-13.2622 9.61072 8.04006
-13.0479 9.05072 8.10567
-13.3433 9.69622 8.11962
-13.1407 9.10024 8.26132
-13.2115 9.14992 8.28146
-13.2222 9.18208 8.28901
-13.2592 9.22649 8.31843
-13.3503 9.26464 8.35482
-13.3966 9.33938 8.36636
-13.4642 9.39593 8.37286
-13.47 9.43944 8.41064
-13.4711 9.4739 8.47172
-13.5043 9.59311 8.49008
-13.5995 9.75518 8.52992
-13.5818 9.78616 8.53765
-13.6059 9.85137 8.54415
-13.6099 9.93714 8.55101
-13.6231 9.92637 8.54626
-13.639 10.0432 8.57018
-13.6209 10.076 8.5908
-13.5967 10.1935 8.60656
-13.6528 10.265 8.63871
-13.6407 10.3346 8.64615
-13.6407 10.4193 8.67537
-13.6675 10.4766 8.71745
-13.6293 10.5297 8.73834
-13.6471 10.6023 8.7503
-13.6643 10.7164 8.76125
-13.6495 10.7912 8.78106
-13.6748 10.8968 8.77834
-13.6616 10.9696 8.81157
-13.6873 11.0267 8.82716
-13.669 11.1411 8.83749
-13.6833 11.2248 8.86573
-13.6889 11.3074 8.88577
-13.7057 11.3814 8.88429
-13.6871 11.4884 8.90854
-13.6625 11.5671 8.92091
-13.6729 11.5927 8.96811
-13.6961 11.7589 8.96411
-13.7071 11.8965 8.98183
-13.7561 12.0562 8.9861
-13.7927 12.1419 9.01064
-13.7918 12.2806 9.03723
-13.8089 12.3959 9.04257
-13.8628 12.5999 9.06662
-13.8948 12.6437 9.06535
-13.8978 12.7792 9.07142
-13.9484 12.8372 9.10884
-13.9672 12.9051 9.10547
-13.9894 12.9607 9.14342
-13.9953 13.0353 9.15065
-14.0435 13.2019 9.15032
-14.0815 13.2502 9.17277
-14.1198 13.368 9.17855
-14.1631 13.4412 9.16834
-14.2313 13.5276 9.1874
-14.2583 13.6589 9.19197
-14.3073 13.6434 9.19887
-14.376 13.7666 9.22431
-14.3678 13.9109 9.21086
-14.4899 14.0724 9.23109
-14.5409 14.2291 9.26077
-14.6134 14.397 9.25623
-14.7099 14.4974 9.23311
-14.7779 14.6265 9.2419
-14.8654 14.7474 9.22521
-14.9556 14.8875 9.22856
-15.0035 15.0174 9.1984
-15.0837 15.189 9.23658
-15.1852 15.3624 9.22663
-15.2492 15.4983 9.19483
-15.3779 15.6358 9.21686
-15.4526 15.8037 9.21925
-15.5104 16.0095 9.1881
-15.5932 16.1706 9.20256
-15.6627 16.3402 9.17084
-15.72 16.4958 9.16461
-15.8074 16.6566 9.16487
-15.8672 16.8042 9.17374
-15.8832 17.0043 9.18788
-15.9203 17.162 9.17581
-15.9564 17.337 9.20439
-15.9677 17.5322 9.20556
-15.9907 17.7105 9.19347
-16.0486 17.858 9.1609
-16.1202 17.9913 9.16982
-16.163 18.12 9.16921
-16.1879 18.2332 9.17115
-16.1964 18.4463 9.17156
-16.1876 18.5824 9.19956
-16.1785 18.7505 9.17402
-16.2448 18.8571 9.17807
-16.2275 19.0062 9.14336
-16.2161 19.1329 9.14253
-16.2746 19.1576 9.13895
-16.2658 19.2859 9.13558
-16.3026 19.4217 9.14904
-16.2985 19.57 9.18551
-16.3111 19.7205 9.18846
-16.3332 19.7712 9.16395
-16.3459 19.977 9.20145
-16.3757 20.1107 9.19037
-16.3645 20.2247 9.13116
-16.4277 20.3502 9.13295
-16.4237 20.4773 9.12172
-16.4913 20.564 9.13623
-16.5095 20.7595 9.14693
-16.4874 20.8627 9.12326
-16.482 20.9179 9.12119
-16.4634 21.0654 9.12221
-16.4646 21.1467 9.11985
-16.462 21.1968 9.13556
-16.4892 21.3256 9.1181
-16.5382 21.4 9.12729
-16.5243 21.4857 9.11657
-16.4936 21.6169 9.10174
-16.5415 21.7231 9.15781
-16.4863 21.7866 9.15654
-15.9889 22.2608 9.15067
-16.3868 21.8804 9.15669
-16.3913 21.8857 9.18233
-16.4347 21.8618 9.20041
-16.5024 21.892 9.22175
-16.515 21.8871 9.23553
-16.389 22.0802 9.32741
-16.3859 22.089 9.30854
-16.2971 22.1685 9.32851
-16.2193 22.1701 9.33597
-16.2593 22.1228 9.34059
-16.3116 22.0688 9.3409
-16.2727 22.0661 9.3444
-16.2406 22.0906 9.32067
-16.2585 22.0919 9.32025
-16.219 22.061 9.35046
-16.2156 22.0276 9.36472
-16.2769 21.9514 9.34785
-16.3207 21.8932 9.40185
-16.2822 21.804 9.39796
-16.3154 21.7207 9.47715
-16.3322 21.6393 9.46775
-16.38 21.498 9.51288
-16.4225 21.4017 9.48384
-16.386 21.3326 9.51548
-16.342 21.286 9.52199
-16.3689 21.1356 9.5226
-16.3512 21.0203 9.48821
-16.3313 20.8755 9.47508
-16.3726 20.6884 9.47068
-16.3799 20.518 9.47369
-16.6957 19.8295 9.35986
-16.7339 19.6041 9.37102
-16.4668 19.8889 9.54502
-16.5166 19.5965 9.50219
-16.5353 19.3927 9.49764
-16.6181 19.1236 9.51892
-16.7988 18.5974 9.49293
-16.8103 18.3198 9.47607
-16.7804 17.9934 9.46843
-16.7774 17.752 9.44782
-16.8079 17.3859 9.48262
-16.8565 17.1326 9.48328
-16.8576 16.8517 9.50019
-16.9369 16.555 9.49867
-16.9364 16.3057 9.46167
-16.9836 16.0436 9.44505
-17.1667 15.5765 9.4247
-17.169 15.3054 9.43423
-17.2061 14.9958 9.42093
-17.2402 14.7235 9.47628
-17.3323 14.3789 9.4211
-17.3764 13.9664 9.43251
-17.4062 13.7533 9.45284
-17.4959 13.4789 9.4594
-17.5957 13.1968 9.38513
-17.6658 12.9042 9.38359
-17.7811 12.6429 9.39514
-17.856 12.3359 9.35887
-17.914 11.9941 9.35788
-18.0027 11.755 9.3967
-18.1587 11.4688 9.41041
-18.2258 11.3319 9.49531
-18.2628 11.0333 9.40362
-18.4525 10.7801 9.53268
-18.5686 10.4654 9.45447
-18.6221 10.2841 9.39093
-18.8117 9.93967 9.35318
-18.9137 9.73264 9.33935
-19.0292 9.52752 9.34991
-19.1743 9.27533 9.34619
-19.9763 8.37224 9.14037
-20.0955 8.15669 9.12108
-20.2473 7.89342 9.12659
-19.802 8.08493 9.31046
-20.4821 7.37344 9.12155
-20.034 7.53177 9.2404
-20.7082 6.75878 9.05499
-20.8067 6.50231 9.03404
-20.4128 6.55476 9.12559
-20.5105 6.31148 9.12747
-20.646 5.99332 9.08145
-20.6475 5.81536 9.07886
-21.105 5.2798 8.99594
-21.1553 5.01916 9.01804
-21.2027 4.78927 8.97169
-21.2363 4.48933 8.96856
-21.2674 4.22323 9.00511
-21.3036 4.04309 8.99802
-21.3446 3.82258 9.0014
-21.3425 3.60451 9.01349
-21.386 3.37389 9.0151
-21.3662 3.12528 9.04304
-21.3808 2.90333 8.99943
-21.373 2.42843 8.98701
-21.333 2.09445 8.96116
-21.2845 1.67812 8.9992
-21.3295 1.44544 8.96653
-21.3513 1.21772 9.04631
-21.3763 1.03993 9.00908
-21.3612 0.724559 8.96272
-21.367 0.418539 8.97234
-21.4373 0.142072 8.9693
-21.4399 -0.061026 8.95967
-21.5489 -0.363248 8.9539
-21.5712 -0.63476 8.94274
-21.5823 -1.06273 8.95939
-21.6139 -1.39611 8.96384
-21.6322 -1.6651 8.8922
-21.6441 -2.02646 8.87886
-21.725 -2.35616 8.86522
-21.7923 -2.63833 8.87628
-21.8195 -2.95911 8.82689
-21.8738 -3.18508 8.83687
-21.9002 -3.54308 8.8224
-21.963 -3.82285 8.7965
-22.0235 -4.13765 8.74692
-22.0639 -4.45554 8.7425
-22.1237 -4.76881 8.77283
-22.136 -5.03472 8.78082
-22.1814 -5.31737 8.74416
-22.1686 -5.62305 8.73847
-22.2447 -5.89507 8.71158
-22.217 -6.20328 8.67325
-22.2295 -6.43714 8.70358
-22.2798 -6.80181 8.68699
-22.2384 -7.19586 8.73545
-22.2064 -7.46088 8.71791
-22.1803 -7.73566 8.67902
-22.2154 -8.04757 8.68478
-22.1673 -8.35397 8.62343
-22.1585 -8.58594 8.61778
-22.1275 -8.97134 8.631
-22.1182 -9.19878 8.62631
-22.1081 -9.46356 8.64397
-22.0753 -9.72751 8.65973
-22.0215 -10.0298 8.70738
-22.0172 -10.34 8.67898
-21.9697 -10.6066 8.7058
-21.8802 -10.9093 8.71987
-21.8464 -11.1698 8.71372
-21.7786 -11.4743 8.70562
-21.6997 -11.6883 8.7214
-21.6288 -11.9894 8.70165
-21.6085 -12.2992 8.68437
-21.5386 -12.6013 8.69633
-21.4482 -12.9003 8.66498
-21.3807 -13.1611 8.65833
-21.2923 -13.4601 8.63784
-21.2072 -13.8368 8.6939
-21.0857 -14.06 8.70662
-20.9779 -14.2774 8.68784
-20.9114 -14.5375 8.71192
-20.7526 -14.9475 8.73475
-20.622 -15.1598 8.68354
-20.4612 -15.4145 8.67398
-20.3398 -15.6534 8.68702
-20.086 -15.8857 8.65883
-19.868 -16.1146 8.70639
-19.6512 -16.3439 8.71014
-19.5084 -16.482 8.73673
-19.3025 -16.6271 8.78634
-19.5165 -16.2498 9.36457
-19.289 -16.4055 9.35894
-19.0121 -16.5218 9.46127
-18.7746 -16.6782 9.48194
-18.4698 -16.7429 9.52516
-18.1382 -16.7556 9.5553
-17.7791 -16.7903 9.55487
-17.4813 -16.9175 9.49789
-17.1422 -17.0103 9.58441
-16.7696 -17.1254 9.5615
-16.4525 -17.2059 9.60286
-16.1614 -17.1999 9.63279
-15.9227 -17.2287 9.67712
-15.7102 -17.2401 9.72252
-15.479 -17.2036 9.7321
-15.0677 -17.2846 9.69368
-14.8059 -17.3423 9.76039
-14.5582 -17.2412 9.76146
-14.2373 -17.2045 9.80055
-13.5357 -17.7506 9.2711
-13.3051 -17.5789 9.34692
-13.043 -17.549 9.3352
-13.187 -16.8735 9.96634
-12.8818 -16.6204 9.90288
-12.636 -16.3952 9.96511
-12.3308 -16.2872 9.99197
-12.5176 -17.5451 9.46969
-12.8726 -18.6009 9.09152
-12.5971 -18.0007 9.04006
-12.3733 -17.3852 8.9697
-12.1219 -16.9503 8.93103
-11.6664 -16.1486 8.97032
-11.3431 -15.302 8.94111
-11.1548 -14.718 8.80045
-11.0519 -14.9327 9.99417
-10.9418 -14.7914 9.89318
-10.5731 -14.2255 9.84152
-10.4249 -14.0551 9.71889
-10.4477 -14.0622 9.60006
-10.4748 -13.9886 9.5352
-10.3822 -13.8866 9.50836
-10.163 -13.4893 9.40747
-9.93558 -13.2146 9.37819
-9.79652 -12.9578 9.29128
-9.63509 -12.6999 9.28126
-9.41545 -12.3635 9.25477
-9.23339 -12.1288 9.22374
-9.01513 -11.7938 9.20146
-8.78366 -11.5296 9.1914
-8.6097 -11.2078 9.17122
-8.39821 -10.9384 9.14258
-8.19137 -10.5977 9.11349
-9.13335 -10.5871 8.58447
-8.16276 -11.2721 9.33117
-8.1851 -11.222 9.30159
-8.22264 -11.138 9.3061
-8.26387 -11.0522 9.32484
-8.28222 -10.9395 9.31507
-8.32359 -10.8469 9.28755
-8.362 -10.691 9.29439
-8.39998 -10.6061 9.29888
-8.41807 -10.5639 9.28664
-8.46139 -10.3984 9.27579
-8.49868 -10.3133 9.26573
-8.55382 -10.1521 9.27251
-8.62975 -9.98061 9.26688
-8.63758 -9.86601 9.28549
-8.69212 -9.73814 9.27829
-8.75509 -9.5262 9.25483
-8.79529 -9.36508 9.26171
-8.87258 -9.19103 9.25595
-8.9371 -9.05007 9.25934
-9.00129 -8.83475 9.23558
-9.06306 -8.7015 9.24108
-9.16137 -8.48126 9.2373
-9.21861 -8.27418 9.21796
-9.29078 -8.10699 9.23174
-9.35339 -7.97263 9.23701
-9.45215 -7.75134 9.21828
-9.53104 -7.57463 9.19722
-9.59094 -7.44127 9.18888
-9.67142 -7.26269 9.18272
-9.75108 -7.0855 9.16145
-9.86639 -6.85907 9.14231
-9.92596 -6.72701 9.11868
-9.97096 -6.59898 9.09497
-10.0691 -6.3775 9.06251
-10.1293 -6.24567 9.03869
-10.1927 -6.03208 9.0171
-10.252 -5.90316 8.97791
-10.3127 -5.77159 8.95386
-10.3989 -5.58949 8.95996
-10.439 -5.42216 8.92305
-10.4837 -5.24958 8.91418
-10.5269 -5.16278 8.90049
-10.5895 -5.02732 8.89144
-10.6011 -4.90717 8.87755
-10.6464 -4.73332 8.8684
-10.7042 -4.6099 8.87849
-10.6893 -4.49067 8.86513
-10.7647 -4.34659 8.85894
-10.7837 -4.23117 8.867
-10.8297 -4.05525 8.85782
-10.8784 -3.94732 8.84264
-10.8976 -3.83126 8.85072
-10.9237 -3.69681 8.85494
-10.9307 -3.58029 8.87856
-10.9979 -3.37865 8.86554
-11.0138 -3.16458 8.85616
-11.0485 -3.0371 8.8801
-11.0752 -2.90016 8.8844
-11.1179 -2.80833 8.87297
-11.1218 -2.64463 8.89692
-11.1368 -2.4515 8.88156
-11.1639 -2.31269 8.88589
-11.168 -2.14737 8.90998
-11.1953 -2.00761 8.91438
-11.1962 -1.92646 8.95232
-11.2032 -1.703 8.95278
-11.2089 -1.58385 8.96508
-11.227 -1.54061 8.93944
-11.2547 -1.39897 8.94397
-11.2627 -1.30625 8.95803
-11.2906 -1.16386 8.96255
-11.3133 -1.11325 8.96483
-11.3099 -1.03785 8.97529
-11.318 -0.944444 8.98929
-11.335 -0.909575 9.01153
-11.3806 -0.807817 9.01617
-11.386 -0.714959 9.01849
-11.4143 -0.570738 9.02314
-11.4585 -0.474615 9.01153
-11.4985 -0.388599 9.03624
-11.5271 -0.243402 9.04093
-11.5441 -0.208751 9.06336
-11.5885 -0.112494 9.05175
-11.5942 -0.0181063 9.05412
-11.6405 0.0851712 9.05886
-11.6619 0.13002 9.04484
-11.7256 0.19005 9.04957
-11.7489 0.241707 9.05193
-11.7935 0.33811 9.04026
-11.8087 0.365142 9.04644
-11.8129 0.453431 9.03237
-11.8129 0.453431 9.03237
-11.8362 0.505247 9.03474
-11.8296 0.548136 9.01844
-11.8448 0.574548 9.02462
-11.8196 0.515064 9.00582
-11.8196 0.515064 9.00582
-11.7944 0.45557 8.98705
-11.8004 0.551177 8.98932
-11.7689 0.473259 8.99076
-11.7689 0.473259 8.99076
-11.7283 0.46494 8.9883
-11.7264 0.457059 8.97188
-11.6715 0.374104 8.98933
-11.6715 0.374104 8.98933
-11.6842 0.380451 8.98951
-11.6401 0.2959 8.99069
-11.6354 0.345346 8.99072
-11.6122 0.293563 8.98835
-11.6122 0.293563 8.98835
-11.6001 0.180374 9.00619
-11.577 0.128797 9.00381
-11.5457 0.0505995 9.00509
-11.5457 0.0505995 9.00509
-11.5318 -0.0702918 9.00653
-11.5318 -0.0702918 9.00653
-10.12 -0.0807782 9.25812
-10.3567 0.343326 9.31325
-10.563 0.853136 9.41078
-9.85097 0.833337 8.34089
-10.436 0.440595 9.31027
-10.1976 0.452951 9.30713
-9.89618 0.308529 9.25937
-9.66324 0.262115 9.2683
-9.3985 0.178816 9.24455
-9.18413 0.146034 9.23504
-8.85971 -0.0862437 9.18773
-8.60633 -0.162328 9.10945
-8.33282 -0.382423 9.11783
-7.98858 -0.545778 9.11804
-7.76987 -0.709189 9.0935
-7.46831 -0.888663 9.01177
-7.16684 -1.21126 8.97726
-6.97513 -1.44468 8.9551
-6.65427 -1.69008 8.89172
-6.47466 -1.91637 8.9229
-6.19881 -2.21042 8.89133
-5.88013 -2.42486 8.85861
-5.56271 -2.71885 8.84091
-5.29056 -3.00368 8.76988
-5.02086 -3.19034 8.72386
-4.74677 -3.48012 8.69319
-4.55709 -3.67185 8.65475
-4.34924 -3.78127 8.61585
-4.11793 -3.97474 8.59045
-3.9146 -4.17381 8.54679
-3.74344 -4.32806 8.56065
-3.55311 -4.43033 8.52373
-3.36425 -4.59048 8.51898
-3.23634 -4.586 8.45654
-3.07189 -4.68599 8.42206
-4.36722 -4.73989 9.11842
-3.92011 -4.14982 8.99342
-3.88589 -4.11227 8.86889
-3.74336 -3.90343 8.83944
-3.66502 -3.50757 8.7643
-3.50199 -3.37208 8.68667
-3.33175 -3.0358 8.72734
-3.19367 -2.91563 8.70058
-3.05578 -2.63588 8.61622
-3.021 -2.23633 8.61232
-2.87387 -2.14057 8.50706
-2.73391 -1.95022 8.42739
-2.6229 -1.87942 8.40225
-2.5441 -1.71315 8.34034
-2.49062 -1.5061 8.26544
-2.34068 -1.35645 8.20213
-2.24327 -0.838399 8.22007
-1.89139 -0.892272 8.05413
-1.81544 -0.535021 8.0127
-2.35021 -1.47668 7.13758
-3.24011 -1.9637 6.49031
-3.46079 -1.23304 6.50636
-3.59978 -0.773946 6.5435
-3.79763 -0.220977 6.55855
-3.94345 0.215173 6.51916
-4.10418 0.707034 6.53159
-4.25594 1.3032 6.54314
-4.35389 2.21305 6.61866
-4.47662 2.08546 6.69354
-4.5645 1.92903 6.67621
-4.708 1.85159 6.68574
-4.79336 1.70536 6.73349
-4.89811 1.60141 6.74078
-4.99551 1.43458 6.77195
-5.07912 1.28029 6.80696
-5.15792 1.11896 6.79793
-5.304 1.01878 6.8535
-5.36993 0.891341 6.83894
-5.49573 0.796909 6.88578
-5.58583 0.678398 6.90765
-5.69102 0.546427 6.93206
-5.77647 0.449505 6.95262
-5.89735 0.287711 6.9906
-6.0004 0.123873 6.98998
-6.13846 0.0402532 7.03835
-6.26674 -0.104917 7.07525
-6.39788 -0.279668 7.08888
-6.55645 -0.462005 7.132
-6.70574 -0.559168 7.16789
-6.81359 -0.600834 7.18618
-7.00271 -0.694106 7.24152
-7.1122 -0.788497 7.26189
-7.2514 -0.881218 7.29866
-7.39852 -0.943364 7.32865
-7.49133 -0.94844 7.34807
-7.61558 -1.01458 7.3829
-7.6964 -1.09053 7.40417
-7.8061 -1.14305 7.44943
-7.91535 -1.18419 7.46836
-7.96106 -1.23446 7.51231
-8.08483 -1.26973 7.55815
-8.15961 -1.30535 7.58842
-8.25692 -1.313 7.63184
-8.34453 -1.41465 7.66637
-8.47186 -1.41509 7.72457
-8.56145 -1.4872 7.73214
-8.67622 -1.6178 7.78346
-8.7621 -1.61137 7.82822
-8.83611 -1.68458 7.85704
-8.89738 -1.75854 7.9034
-8.95616 -1.79711 7.94416
-9.0435 -1.8468 7.99117
-9.131 -1.89868 8.02392
-9.17341 -1.95666 8.05517
-9.25893 -1.99342 8.04962
-9.33557 -2.14458 8.07274
-9.3995 -2.22301 8.09086
-9.47318 -2.31898 8.1259
-9.52249 -2.38466 8.12986
-9.58989 -2.50269 8.13891
-9.63687 -2.60586 8.17065
-9.70428 -2.72424 8.17942
-9.73044 -2.89177 8.18716
-9.79411 -3.05173 8.18434
-9.81725 -3.2015 8.20356
-9.86189 -3.3271 8.21121
-9.91794 -3.50834 8.22076
-9.9268 -3.64606 8.23699
-9.9865 -3.86801 8.24822
-10.0295 -4.03785 8.26504
-10.0646 -4.14906 8.31053
-10.0939 -4.29994 8.31694
-10.1367 -4.47159 8.33341
-10.2228 -4.78259 8.3745
-10.2899 -4.92836 8.38526
-10.3979 -5.45957 8.44965
-10.6077 -6.32161 8.56926
-10.6674 -6.4927 8.58995
-10.6879 -6.71384 8.61865
-10.7638 -6.84563 8.63722
-11.3058 -8.17244 8.82937
-10.5065 -8.32855 10.0716
-10.5259 -8.27142 10.0706
-10.4103 -8.06717 10.0324
-10.365 -7.86104 10.0525
-10.3523 -7.65087 10.0568
-9.34241 -8.54817 10.3734
-8.98704 -8.31329 11.6648
-9.39118 -8.50368 12.2537
-9.54418 -8.62816 12.2711
-9.69272 -8.68698 12.2854
-9.88135 -8.82116 12.2973
-10.0554 -8.88155 12.3091
-10.1818 -8.91569 12.355
-10.368 -8.97642 12.3872
-10.5234 -9.09929 12.4161
-10.6982 -9.05374 12.4229
-10.8127 -9.0595 12.4546
-11.2635 -8.88228 12.4175
-11.4359 -8.79204 12.4521
-11.9747 -8.13542 11.8956
-11.7591 -8.90136 12.5565
-12.3962 -8.08106 11.8695
-12.6325 -7.82401 11.8452
-12.8522 -7.64884 11.8915
-12.5151 -8.61267 12.614
-12.6436 -8.51212 12.6353
-12.8492 -8.41909 12.638
-12.9472 -8.36301 12.681
-13.0558 -8.32002 12.716
-13.3375 -7.94905 12.8015
-13.494 -7.96358 12.8011
-13.668 -7.8603 12.8175
-13.8148 -7.79038 12.9485
-13.9483 -7.64837 12.9336
-14.0777 -7.64761 12.9382
-14.654 -7.32178 13.4063
-14.7053 -7.39616 13.3882
-15.1324 -6.11419 13.1298
-15.0052 -5.10178 13.2513
-15.4193 -4.27868 12.9525
-15.4359 -3.701 12.9414
-15.4824 -3.57699 12.9133
-15.5392 -3.78042 12.8876
-15.5487 -3.65937 12.9153
-15.5272 -3.14842 12.9651
-15.221 -1.89337 13.3248
-15.3001 -2.09365 13.3248
-15.2803 -2.245 13.3079
-15.4404 -2.54474 13.3364
-15.3781 -2.63446 13.3384
-15.4331 -2.82379 13.3701
-15.4578 -2.99958 13.328
-15.4699 -3.17714 13.3247
-15.4771 -3.35149 13.3561
-15.5151 -3.39908 13.3628
-15.4875 -3.49861 13.3829
-15.4913 -3.57972 13.4097
-15.5562 -3.7617 13.4368
-15.1233 -4.56889 13.8974
-15.4125 -5.03371 14.1371
-15.4381 -5.06711 14.1727
-15.4947 -5.14633 14.1998
-15.4868 -5.28108 14.2035
-15.5019 -5.39172 14.2204
-15.5062 -5.41038 14.2511
-15.6962 -6.46789 13.488
-15.6338 -6.73112 13.4928
-15.4268 -5.76021 14.4395
-15.4534 -5.84983 14.4728
-15.4753 -5.94978 14.5047
-15.4108 -5.99577 14.5425
-15.4642 -6.02077 14.5844
-15.4261 -6.05702 14.6011
-15.354 -6.01796 14.6202
-15.3057 -5.98472 14.6306
-15.2592 -5.95357 14.6685
-15.2916 -6.03572 14.6424
-15.2467 -5.93744 14.6697
-15.235 -6.92848 13.6311
-15.2061 -6.93485 13.5851
-15.1016 -6.85127 13.5972
-15.0546 -6.75791 13.5868
-15.0206 -6.6795 13.5754
-14.9756 -6.61585 13.5703
-14.9592 -6.52081 13.5816
-14.941 -5.52966 14.5109
-15.0019 -5.52828 14.4778
-14.9038 -5.31891 14.3973
-14.898 -5.25194 14.432
-14.8079 -5.16278 14.3145
-14.7847 -5.05214 14.2649
-14.8015 -4.83124 14.2637
-14.8174 -4.72886 14.169
-14.645 -5.16555 13.4163
-14.6231 -5.07623 13.3973
-14.5824 -4.88297 13.362
-14.5627 -4.72829 13.309
-14.5375 -4.52018 13.2435
-14.4663 -4.36171 13.1763
-14.4044 -4.22197 13.0935
-14.3326 -4.06441 13.0407
-14.2556 -3.97149 12.9555
-14.1789 -3.87785 12.8703
-14.1042 -3.72319 12.8025
-14.0195 -3.56728 12.6774
-13.8654 -3.52199 12.5693
-13.7774 -3.36969 12.4292
-13.6837 -3.27697 12.2953
-13.5519 -3.04141 12.146
-13.39 -2.96718 11.9662
-13.2825 -2.85842 11.8113
-13.1724 -2.71867 11.6361
-13.0137 -2.70368 11.4686
-12.8494 -2.62977 11.3273
-12.6538 -2.50893 11.1718
-12.4969 -2.39851 10.995
-12.3282 -2.33821 10.8604
-12.1877 -2.30429 10.7101
-11.9667 -2.33754 10.5644
-11.7692 -2.32305 10.4408
-11.5488 -2.21365 10.2989
-11.3273 -2.22893 10.1687
-11.1524 -2.21877 10.0755
-10.9192 -2.21551 9.91077
-10.6544 -2.20966 9.85856
-10.4616 -2.11506 9.78174
-10.2317 -2.21089 9.6849
-9.95547 -2.22114 9.60286
-9.7362 -2.13087 9.53216
-9.49556 -2.12449 9.47437
-9.26873 -2.11026 9.36616
-9.04878 -2.0821 9.3296
-8.81385 -2.10472 9.27229
-8.5525 -2.12908 9.24006
-8.32618 -1.96724 9.1911
-8.0772 -1.83343 9.16055
-7.81377 -1.80977 9.10284
-8.1386 -0.671698 9.64319
-7.74863 -0.708769 9.64509
-7.39812 -0.815215 9.56275
-7.05314 -0.994073 9.55635
-6.72183 -1.07769 9.54869
-6.37305 -0.983216 9.55692
-6.05769 -0.905892 9.55368
-5.69211 -0.976511 9.66224
-5.2068 -1.38682 9.07373
-4.94259 -1.27324 8.99427
-5.84847 -1.84758 8.21094
-4.64451 -1.15534 8.95867
-5.66724 -1.86479 8.21416
-4.29957 -1.1913 8.93808
-3.53431 -1.61111 9.44352
-3.0825 -1.85889 9.47866
-2.62813 -2.02131 9.42857
-2.25299 -1.96121 9.36424
-1.79804 -2.21769 9.36767
-1.45025 -2.30162 9.38419
-1.04559 -2.44784 9.32491
-0.53833 -2.64891 9.33968
0.415235 -2.86991 9.24125
0.0702201 -1.55584 8.73825
0.279005 -1.70798 8.71528
0.527474 -1.91555 8.69341
0.65126 -2.08764 8.65276
0.893649 -2.2026 8.64767
1.0687 -2.40499 8.62543
1.22427 -2.62483 8.58473
1.33314 -2.73665 8.52959
1.47475 -2.89277 8.5264
1.58146 -3.0924 8.48728
1.67797 -3.22927 8.50295
1.78233 -3.42484 8.44722
1.92782 -3.58618 8.4445
2.03187 -3.78123 8.38922
2.80637 -4.74271 8.70624
2.7699 -4.61559 8.75509
2.7077 -4.50652 8.71647
2.62951 -4.42708 8.67861
2.58146 -4.29864 8.67918
2.54943 -4.23197 8.64085
2.58133 -4.27924 8.62797
2.76666 -4.51305 8.32884
2.15761 -3.55815 8.53723
2.08229 -3.33038 8.52417
2.9857 -4.46525 8.27759
3.05122 -4.37862 8.27845
3.06945 -4.26562 8.2809
3.08293 -4.15076 8.29989
3.11088 -4.01061 8.28463
3.10945 -3.73854 8.30594
3.18574 -3.53312 8.29095
3.15142 -3.21704 8.31214
3.59083 -4.4307 9.03893
3.4689 -3.82668 8.98436
3.55794 -3.56339 8.93442
3.49293 -3.05951 8.93324
3.57634 -2.7303 8.89484
3.55972 -1.65467 8.85095
3.53555 -1.11257 8.79925
3.61568 -0.656706 8.7695
3.71471 -0.0692237 8.71838
3.76967 0.500377 8.68984
3.73084 0.916553 8.71487
4.40245 2.23543 8.78567
4.16657 2.32701 8.66168
3.99021 2.46819 8.63329
3.66015 2.54262 8.64117
3.57626 2.81729 8.59878
3.55972 3.10383 8.18076
3.01572 2.88895 8.18244
2.92516 3.05591 8.41934
3.57601 3.85591 7.88658
3.66989 4.48632 7.99479
3.39161 4.6591 7.99235
3.21196 4.87914 7.98769
2.9347 4.91057 7.97017
2.73326 5.12992 7.96639
2.58017 5.28224 7.98817
2.40368 5.39197 7.98105
2.22248 5.62781 7.97497
2.06563 5.79335 7.98522
1.88285 5.91451 8.00535
1.70799 6.07077 8.01796
1.51778 6.25067 8.0519
1.36522 6.38113 8.06504
1.17574 6.44538 8.12493
1.02135 6.61665 8.09069
0.869013 6.71387 8.12825
0.716248 6.81642 8.15044
0.4889 6.89734 8.20082
0.348352 6.9988 8.18146
0.215446 7.07341 8.21861
0.0478541 7.21233 8.20212
-0.0866411 7.29162 8.20463
-0.224518 7.45154 8.20037
-0.411235 7.51148 8.19557
-0.610575 7.54713 8.19457
-0.677937 7.6991 8.16495
-0.772397 7.79748 8.16797
-1.1372 6.61288 7.71806
-1.02728 6.17255 7.69497
-0.954469 5.1237 8.07969
-1.20715 6.27854 8.81451
-1.64952 6.20344 9.20064
-1.62894 5.9027 9.23167
-1.58963 5.58821 9.23518
-1.64758 5.33682 9.26274
-2.20787 5.33763 8.90925
-1.79873 4.8553 8.97156
-1.4414 4.40433 9.0291
-1.01687 3.98358 9.14001
-0.607844 3.48205 9.20559
-1.21996 3.52454 9.51692
-1.19672 3.24535 9.52979
-1.14729 2.95989 9.52707
-1.11963 2.69028 9.5502
-1.04529 2.3177 9.61526
-1.02541 1.93302 9.64374
-0.895426 1.66379 9.68414
-1.22656 1.39959 10.7208
-0.52761 0.746021 10.822
0.113431 0.0832957 10.966
0.911152 -0.660624 11.059
1.83482 -1.46871 11.1999
2.56213 -2.12961 11.3481
3.29453 -2.7699 11.462
4.01826 -3.48471 11.5546
4.78195 -4.12568 11.6153
5.42041 -4.79262 11.6823
6.13508 -5.44063 11.7445
6.87088 -6.10961 11.7879
7.52694 -6.76051 11.8959
8.15711 -7.37978 11.9101
8.80479 -7.93575 11.9889
9.40966 -8.43074 12.0732
9.9518 -9.07572 12.133
10.5678 -9.63279 12.2111
11.0661 -10.0886 12.2349
11.5981 -10.6438 12.2966
11.9781 -11.0793 12.4403
12.6468 -11.5652 12.5294
13.1616 -12.1704 12.4259
14.0034 -13.1334 12.5309
13.3553 -13.8505 11.3918
13.3242 -13.7631 11.415
13.2404 -13.5858 11.437
13.1235 -13.4044 11.4607
13.1785 -13.3122 11.5057
13.0236 -13.1465 11.488
12.9726 -13.0475 11.5395
12.8918 -12.8852 11.5908
12.8283 -12.7379 11.5976
12.7565 -12.6187 11.6065
12.6384 -12.4633 11.6276
12.4575 -12.3105 11.6485
12.1871 -12.0517 11.6625
12.1058 -11.8537 11.7457
12.0942 -11.7983 11.7658
12.5415 -11.5527 13.1402
12.4117 -11.53 13.0132
12.2994 -11.5572 12.8626
12.2534 -11.5614 12.7567
12.0617 -11.3809 12.6402
11.8663 -11.1948 12.5232
11.6131 -11.0177 12.4592
11.5158 -10.914 12.3851
11.1545 -10.5033 12.2697
11.0195 -10.46 12.2248
10.7715 -10.1978 12.1586
10.4912 -9.98162 12.0913
10.3865 -9.92415 12.0687
10.3109 -9.90887 11.9925
10.0308 -9.63568 12.0008
9.77639 -9.40036 11.955
9.58245 -9.21516 11.9083
9.28574 -8.86517 11.8617
9.01747 -8.61137 11.814
8.81166 -8.40955 11.7655
8.46761 -7.94107 11.7166
8.27471 -7.79617 11.6918
8.00148 -7.44564 11.6946
7.71582 -7.02617 11.6433
7.58576 -6.93295 11.6175
7.3069 -6.57622 11.6183
7.10832 -6.28265 11.5913
7.01254 -6.1472 11.5648
6.9408 -6.08534 11.5644
6.69003 -5.8214 11.5638
6.65792 -5.72504 11.5634
6.45458 -5.42744 11.5352
6.42858 -5.3506 11.5084
6.2222 -5.04961 11.4797
6.32194 -5.19005 11.5073
6.18814 -4.95141 11.479
6.07016 -4.9073 11.505
5.81748 -4.51092 11.5283
5.96854 -4.63287 11.5031
5.8606 -4.47246 11.5017
5.64827 -4.17439 11.4985
5.64577 -4.17873 11.5249
5.61241 -4.0825 11.5241
4.8782 -2.9598 11.4967
4.57978 -2.50407 11.5522
4.60914 -2.49051 11.5655
4.69603 -2.46338 11.5384
4.75546 -2.39802 11.5768
4.79729 -2.40423 11.5637
4.85565 -2.39677 11.5777
4.87361 -2.45661 11.6026
4.95237 -2.47291 11.5891
5.02721 -2.53382 11.6031
5.13873 -2.63271 11.6282
5.16953 -2.59233 11.617
5.25142 -2.65615 11.5891
5.3473 -2.67288 11.6303
5.44552 -2.72477 11.6439
5.48049 -2.74103 11.644
5.5498 -2.79358 11.6686
5.64848 -2.91071 11.669
5.73258 -2.89714 11.6687
5.78176 -2.93125 11.6955
5.81565 -3.04217 11.7103
5.86664 -3.04053 11.7379
5.93182 -3.08942 11.7497
5.95308 -3.12907 11.7632
6.0087 -3.17213 11.8019
6.06087 -3.16691 11.815
6.0517 -3.16769 11.8198
6.07252 -3.1444 11.8178
6.12245 -3.12899 11.8307
6.1546 -3.12972 11.8311
6.18684 -3.13045 11.8584
6.20522 -3.10836 11.8711
6.26957 -3.02048 11.8715
6.32013 -2.94857 11.8694
6.36651 -2.86867 11.8701
6.42854 -2.77799 11.8696
6.47434 -2.64202 11.8538
6.50508 -2.58835 11.8542
6.56652 -2.39963 11.8538
6.61565 -2.31989 11.8239
6.66095 -2.23368 11.8352
6.76295 -2.09935 11.8356
6.84224 -1.88046 11.8066
6.9164 -1.70164 11.8166
7.05648 -1.52473 11.7865
7.12992 -1.34314 11.7846
7.24763 -1.12557 11.8074
7.38848 -0.956223 11.791
7.44884 -0.670728 11.7742
7.58809 -0.442358 11.7416
7.71202 -0.252703 11.7244
7.8082 -0.0628668 11.7189
7.9687 0.286496 11.7132
8.15037 0.615997 11.7067
8.29967 0.879232 11.6725
8.49252 1.17152 11.6749
8.69087 1.43365 11.6574
8.85397 1.76953 11.6332
9.03329 2.02257 11.6268
9.15542 2.25937 11.5947
9.32708 2.56625 11.5683
9.57512 2.74473 11.5554
9.7355 3.04977 11.5243
9.87174 3.22628 11.5102
10.102 3.45858 11.5217
10.372 3.67548 11.4864
10.5774 3.96135 11.5078
10.7666 4.23684 11.4715
10.9549 4.44375 11.5135
11.1866 4.66008 11.5209
11.3683 4.96073 11.4873
11.537 5.16893 11.4517
11.6759 5.37701 11.4765
11.8839 5.62812 11.4489
12.0868 5.86432 11.4218
12.2471 6.0662 11.4302
12.4489 6.2361 11.4307
12.6281 6.36763 11.4514
12.8276 6.62783 11.4113
12.9681 6.83151 11.4419
13.1239 6.93867 11.4021
13.2998 7.098 11.4152
13.5232 7.33976 11.409
13.6823 7.51122 11.4129
13.8184 7.68626 11.43
14.0105 7.81433 11.4477
14.1184 7.98248 11.4299
14.2269 8.13226 11.4516
14.3016 8.28853 11.443
14.3376 8.42133 11.4271
14.4312 8.50628 11.4283
14.5358 8.6145 11.4641
14.6045 8.76906 11.4516
14.729 8.84158 11.4739
14.7668 8.98049 11.4756
14.8256 9.15236 11.4658
14.9146 9.224 11.4799
14.8986 9.34211 11.483
14.8987 9.45936 11.5113
14.9499 9.51682 11.5042
15.0096 9.63808 11.5046
15.0515 9.74621 11.5313
15.1087 9.86557 11.5193
15.0105 10.1872 11.5016
15.0261 10.1991 11.5579
14.9346 10.3739 11.5472
14.9584 10.6291 11.5502
14.9633 10.8458 11.5458
14.949 10.9979 11.5558
14.8593 11.2482 11.5481
14.8071 11.417 11.5264
14.6968 11.5986 11.54
14.5897 11.836 11.5489
14.5076 12.0717 11.5818
14.4623 12.2086 11.5742
14.3522 12.4781 11.5748
14.2877 12.6579 11.5581
14.174 12.7416 11.5948
14.1214 13.0194 11.6406
14.0435 13.2494 11.5849
13.9777 13.3937 11.5678
13.8814 13.625 11.5616
13.7606 13.9063 11.5661
13.7067 14.0702 11.5621
13.6238 14.2857 11.5907
13.5828 14.4066 11.5698
13.4093 14.6973 11.5905
13.332 14.8505 11.595
13.1461 15.222 11.5704
13.9399 14.4085 11.5098
13.8427 14.6733 11.5293
13.6947 14.8961 11.5438
13.6331 15.0625 11.5604
13.493 15.2331 11.5552
13.4515 15.4611 11.5563
13.3055 15.7187 11.5511
12.5299 16.8595 11.5631
13.1884 16.0833 11.5838
12.3186 17.2496 11.5622
12.1918 17.3698 11.5446
12.1406 17.4565 11.5466
12.0827 17.5671 11.5379
11.9952 17.6758 11.5354
11.9484 17.7282 11.506
11.8952 17.7937 11.5013
11.8341 17.9073 11.5138
11.7008 18.0236 11.4924
11.599 18.1406 11.4894
11.5179 18.2003 11.4657
11.4317 18.2595 11.4765
11.3056 18.3545 11.4472
11.1916 18.4113 11.4653
11.0976 18.4918 11.4222
11.0241 18.5324 11.406
10.8837 18.6093 11.4085
10.79 18.639 11.4008
10.6746 18.691 11.3921
10.5731 18.7176 11.3846
10.4445 18.7548 11.3614
10.3146 18.7741 11.3612
10.2088 18.8548 11.3631
10.1446 18.8471 11.3524
10.0966 18.8524 11.3448
9.92773 18.8814 11.3409
9.85318 18.8377 11.3191
9.68325 18.7899 11.3253
9.54313 18.7226 11.3282
9.43553 18.6741 11.3305
9.34223 18.7305 11.317
9.21123 18.6865 11.3195
9.12071 18.6708 11.3321
8.96469 18.5282 11.3249
8.82956 18.5213 11.3016
8.73718 18.5186 11.2997
8.59131 18.4512 11.3136
8.45393 18.4396 11.3144
8.34308 18.4137 11.3271
8.19667 18.3843 11.34
8.08743 18.3258 11.3452
7.98059 18.3332 11.3159
7.84751 18.3154 11.3418
7.78362 18.3423 11.3306
7.70704 18.3889 11.341
7.58656 18.3757 11.3619
7.41775 18.3345 11.3931
7.25103 18.2947 11.416
7.13394 18.2881 11.4269
6.9922 18.2195 11.4913
6.89045 18.2749 11.4897
6.7753 18.3221 11.5015
6.63882 18.2973 11.5278
6.5445 18.2722 11.5379
6.43872 18.1964 11.5519
6.29052 18.1572 11.5706
6.17658 18.131 11.6009
6.03299 18.1063 11.5841
5.89112 18.094 11.6231
5.76501 18.0415 11.6365
5.65728 18.0405 11.6768
5.51462 18.0966 11.67
5.38878 18.0086 11.6908
5.30412 17.9409 11.6752
5.82848 19.0834 11.5215
5.6953 19.0185 11.5406
5.55803 18.8978 11.5695
4.89081 17.7196 11.6957
4.78024 17.6788 11.7361
4.64214 17.5929 11.7189
4.45426 17.4591 11.7445
4.32055 17.3729 11.7255
4.2161 17.3143 11.7258
4.10391 17.2745 11.7704
3.98982 17.2109 11.7632
3.83914 17.1338 11.7567
3.73664 17.0561 11.7591
3.62293 16.9568 11.762
3.51554 16.8839 11.7585
3.41895 16.8457 11.7593
3.34739 16.744 11.7632
3.2463 16.6618 11.7726
3.11813 16.5627 11.757
3.02989 16.4779 11.7393
2.87528 16.3865 11.761
2.82106 16.26 11.7605
2.79437 16.1631 11.7536
2.71408 16.0636 11.7468
2.65418 15.977 11.7564
2.59537 15.8809 11.7496
2.49296 15.7568 11.7591
2.39716 15.6163 11.7432
2.35325 15.5323 11.7413
2.30355 15.4762 11.724
2.26358 15.3246 11.6914
2.21671 15.1885 11.6746
2.13726 14.9517 11.6601
2.10073 14.8149 11.6362
2.01495 14.7628 11.6327
1.95845 14.6035 11.6159
1.94385 14.3904 11.5844
1.85483 14.2052 11.5675
1.79981 13.9994 11.5607
1.78562 13.8675 11.5382
1.73431 13.6258 11.5124
1.68967 13.466 11.5061
1.64415 13.2711 11.4677
1.56588 13.0396 11.4411
1.58042 12.8817 11.4244
1.52544 12.6786 11.4286
1.48196 12.4756 11.4227
1.49252 12.2937 11.4163
1.4651 12.1276 11.3983
1.48958 11.923 11.3813
1.52659 11.6997 11.3916
1.55563 11.5024 11.3958
1.58641 11.2951 11.3621
1.60407 10.9761 11.3694
1.58032 10.7481 11.3688
1.60242 10.5229 11.3732
1.63077 10.301 11.3941
1.74599 10.0585 11.3771
1.7698 9.82971 11.3954
1.8199 9.58874 11.3902
1.87748 9.34375 11.3843
1.90323 9.15726 11.3871
1.94232 9.01332 11.368
1.98496 8.77449 11.3445
2.05713 8.5119 11.3493
2.27023 8.02276 11.354
2.32073 7.79629 11.3471
2.43421 7.55965 11.3929
2.54826 7.33084 11.3892
2.68329 7.12607 11.3962
2.73443 6.92843 11.3555
2.89802 6.59318 11.3555
3.03042 6.38976 11.3738
3.08359 6.18515 11.373
3.26328 5.89738 11.335
3.3904 5.72577 11.3029
3.57439 5.45177 11.325
3.68882 5.22037 11.3172
3.82237 5.01005 11.3486
3.90126 4.82483 11.3424
3.98407 4.66909 11.3328
4.044 4.50823 11.3351
4.15171 4.24901 11.3508
4.28945 4.03363 11.3294
4.36718 3.83963 11.3237
4.48728 3.64371 11.3264
4.55933 3.42763 11.3404
4.68562 3.22224 11.3439
4.74713 2.96832 11.3234
4.86924 2.76073 11.3423
4.95918 2.63832 11.3343
5.04561 2.43117 11.3123
5.09978 2.22711 11.3538
5.14853 2.15341 11.3185
5.23123 2.03805 11.3488
5.24577 1.93389 11.3755
5.35732 1.8217 11.3508
5.39834 1.76247 11.3518
5.45946 1.62496 11.3691
5.5194 1.54351 11.3553
5.54435 1.45807 11.3856
5.53684 1.45647 11.4142
5.56501 1.41754 11.4
5.58957 1.33184 11.4302
5.62646 1.2696 11.4592
5.62827 1.3127 11.4551
5.63537 1.33282 11.4592
5.58629 1.35528 11.4439
5.58895 1.34435 11.4328
5.56669 1.37166 11.4327
5.50835 1.3629 11.4329
5.44121 1.49765 11.4314
5.38517 1.52711 11.4704
5.32454 1.5631 11.4722
5.23713 1.63918 11.4843
5.17844 1.71304 11.4478
5.07765 1.77137 11.4587
5.02915 1.80208 11.4832
4.96592 1.84466 11.4816
4.87162 1.89112 11.4547
4.78365 1.91883 11.4688
4.70845 1.98681 11.4527
4.57962 2.07652 11.4265
4.43551 2.10532 11.4399
4.34402 2.14672 11.4523
4.2196 2.19015 11.4387
4.11088 2.21086 11.4381
4.02632 2.29126 11.4619
3.87382 2.32155 11.4624
3.74746 2.32267 11.4625
3.68397 2.36748 11.4616
3.56241 2.35394 11.4629
3.48205 2.37256 11.4649
3.3645 2.35846 11.4635
3.24327 2.25999 11.4524
3.08946 2.08373 11.451
2.92531 2.03179 11.4686
2.75672 2.08802 11.4536
2.62513 2.0493 11.4802
2.48315 2.07314 11.4924
2.34311 2.04466 11.4944
2.19867 1.97851 11.4957
2.0981 1.98317 11.5081
2.03561 1.97732 11.5102
1.95015 1.87195 11.5384
1.80769 1.85463 11.524
1.74374 1.81147 11.524
1.64428 1.77293 11.5491
1.57403 1.73267 11.5507
1.4545 1.70951 11.5522
1.34624 1.68188 11.5548
1.29618 1.61736 11.555
1.2331 1.57304 11.5826
1.17987 1.59915 11.607
1.06485 1.58067 11.6193
1.01781 1.51242 11.6349
0.919376 1.51335 11.6351
0.82404 1.46883 11.661
0.745368 1.48881 11.6751
0.664243 1.51012 11.6749
0.599145 1.55705 11.7136
0.531832 1.51191 11.7402
0.467982 1.56194 11.711
0.372552 1.56649 11.7357
0.271893 1.61227 11.748
0.194581 1.63387 11.7477
0.148801 1.65617 11.7469
0.0838942 1.69656 11.7601
-0.00729229 1.69598 11.7605
-0.0523226 1.75636 11.7877
-0.139989 1.75753 11.7873
-0.175316 1.7568 11.7876
-0.251408 1.73873 11.7994
-0.299016 1.80739 11.8107
-0.377992 1.82729 11.7981
-0.491607 1.85456 11.8478
-0.549901 1.81634 11.8335
-0.615206 1.862 11.8455
-0.724465 1.9302 11.8443
-0.769941 1.95245 11.87
-0.639293 1.69753 11.9213
-0.672783 1.74875 11.9021
-0.849428 1.9932 11.8895
-0.923383 2.02348 11.8678
-1.01143 1.99384 11.8686
-1.09284 1.88673 11.8679
-1.19942 1.90666 11.9083
-1.29828 1.86303 11.9336
-1.30803 1.85931 11.973
-1.34887 1.80938 11.987
-1.38731 1.76103 11.9603
-1.38146 1.59713 11.9766
-1.39014 1.58912 11.9649
-1.38434 1.51937 11.9517
-1.33842 1.44581 11.9677
-1.29568 1.3411 11.9395
-1.27908 1.26245 11.9173
-1.364 1.15102 11.9295
-1.44208 1.03632 11.9301
-1.43385 0.872541 11.946
-1.45907 0.757019 11.9188
-1.46243 0.664099 11.907
-1.42652 0.587144 11.8968
-1.37676 0.475939 11.9124
-1.36041 0.226626 11.8894
-1.2539 0.0645085 11.8936
-1.26885 -0.0465385 11.894
-1.18149 -0.245546 11.8988
-1.14723 -0.370846 11.8989
-1.05486 -0.509727 11.9026
-0.975171 -0.665261 11.9191
-0.894314 -0.768759 11.9329
-0.818265 -0.881881 11.9352
-0.70629 -1.03715 11.965
-0.598251 -1.2313 11.967
-0.546809 -1.38954 11.9967
-0.509705 -1.60317 12.0103
-0.41278 -1.77205 12.0251
-0.390706 -2.06355 12.0293
-0.197735 -2.27591 12.032
-0.102599 -2.45566 12.0471
0.0136599 -2.69652 12.1032
0.145667 -2.86931 12.1455
0.243716 -3.08054 12.1347
0.403829 -3.29664 12.1763
0.550257 -3.52849 12.1912
0.648213 -3.65898 12.2333
0.807963 -3.8156 12.2464
0.939003 -4.03155 12.261
1.06682 -4.20173 12.289
1.16427 -4.46618 12.3041
1.29387 -4.63302 12.2925
1.45849 -4.88754 12.3204
1.57491 -5.12238 12.3342
1.63885 -5.26136 12.3485
1.79916 -5.46319 12.3631
1.96198 -5.76761 12.3905
2.10762 -5.95968 12.4047
2.22282 -6.12685 12.433
2.35303 -6.34165 12.4464
2.44068 -6.5961 12.4725
2.55042 -6.75407 12.5136
2.68089 -7.025 12.5526
2.78109 -7.20669 12.5656
2.95509 -7.48178 12.6064
3.06743 -7.77073 12.6059
3.16756 -8.00503 12.6298
3.28193 -8.28584 12.6678
3.37958 -8.59853 12.6933
3.46338 -8.76352 12.7053
3.59211 -8.99767 12.7039
3.72549 -9.21888 12.7429
3.83572 -9.4559 12.7663
3.96423 -9.67541 12.7916
4.01667 -9.96451 12.8003
4.12089 -10.1858 12.8085
4.21703 -10.4183 12.8047
4.31569 -10.5475 12.83
4.38634 -10.8184 12.8666
4.46476 -11.0123 12.862
4.56387 -11.2793 12.8874
4.69393 -11.5119 12.8677
4.76043 -11.7324 12.8911
4.81496 -11.89 12.8742
4.85641 -12.0989 12.9245
4.95202 -12.3677 12.8941
5.04465 -12.5167 12.9276
5.04557 -12.7784 12.9248
5.08656 -13.0059 12.9431
5.16165 -13.0913 12.9426
5.20709 -13.3918 12.9466
5.32753 -13.6273 12.9939
5.38265 -13.82 12.9908
5.4878 -14.0416 13.0232
