ply
format ascii 1.0
element vertex 1513
property float x
property float y
property float z
element face 0
property list uchar int vertex_index
end_header
2.10478 4.57402 2.14737
2.10472 4.57398 2.14722
2.10466 4.57396 2.14716
2.10464 4.57397 2.14716
2.10466 4.57402 2.14719
2.1047 4.57408 2.1472
2.10474 4.57414 2.1472
2.10474 4.57419 2.14718
2.10474 4.5742 2.1472
2.10473 4.5742 2.14725
2.10473 4.57417 2.14728
2.10473 4.57414 2.14728
2.10473 4.57412 2.14724
2.10473 4.57413 2.14721
2.10473 4.57416 2.14722
2.10472 4.57419 2.14724
2.10469 4.57422 2.14725
2.10465 4.57424 2.14725
2.10465 4.57428 2.14728
2.10468 4.57432 2.14731
2.10471 4.57435 2.14733
2.10474 4.57438 2.14732
2.10477 4.57439 2.14731
2.10479 4.57439 2.14733
2.10481 4.5744 2.14738
2.10482 4.57443 2.14743
2.10483 4.57447 2.14748
2.10485 4.57452 2.14751
2.10489 4.57454 2.14754
2.10495 4.57454 2.14759
2.10498 4.5745 2.14763
2.10492 4.57443 2.14766
2.10481 4.57437 2.1477
2.10471 4.57434 2.14777
2.1047 4.57434 2.14786
2.10477 4.57437 2.14795
2.10484 4.57441 2.14803
2.10486 4.57443 2.14809
2.10485 4.57443 2.14816
2.10487 4.57442 2.14823
2.10492 4.57438 2.14832
2.10502 4.57429 2.14841
2.10514 4.57417 2.14852
2.10526 4.57403 2.14865
2.10537 4.57391 2.14881
2.10542 4.57385 2.14895
2.10542 4.57381 2.1491
2.10542 4.57374 2.14926
2.10555 4.57357 2.14945
2.10591 4.57329 2.14965
2.10649 4.57295 2.14986
2.10716 4.57259 2.15008
2.10772 4.5722 2.15034
2.10817 4.57175 2.1507
2.10885 4.5712 2.15123
2.11041 4.57055 2.15212
2.11371 4.56989 2.15362
2.11963 4.5694 2.15614
2.12903 4.56935 2.16041
2.14271 4.56996 2.16773
2.16134 4.57135 2.18026
2.1855 4.57352 2.20121
2.21573 4.57653 2.23477
2.25253 4.58054 2.28561
2.2963 4.58588 2.35827
2.34717 4.59288 2.45633
2.4051 4.60184 2.58165
2.46989 4.61295 2.73378
2.54131 4.62632 2.90977
2.61911 4.642 3.1045
2.70287 4.65994 3.31128
2.79203 4.68012 3.52303
2.88594 4.7025 3.73341
2.9841 4.72709 3.93783
3.08617 4.75392 4.1339
3.19196 4.78301 4.3213
3.30136 4.81439 4.50131
3.41433 4.84809 4.67618
3.53087 4.88417 4.84849
3.65101 4.92268 5.02063
3.77479 4.96364 5.1943
3.90219 5.00707 5.37042
4.03315 5.05297 5.5492
4.16759 5.10131 5.73058
4.30537 5.152 5.91486
4.44641 5.20491 6.10347
4.59061 5.25991 6.29963
4.73793 5.31693 6.50851
4.88823 5.37593 6.73636
5.04107 5.43686 6.98893
5.1955 5.4997 7.26956
5.34971 5.56433 7.57795
5.50097 5.63061 7.91021
5.64584 5.69844 8.25984
5.78055 5.76779 8.61915
5.9015 5.83873 8.98042
6.00559 5.91119 9.33651
6.09055 5.98492 9.68098
6.15538 6.05952 10.0078
6.20069 6.13468 10.3111
6.22856 6.21034 10.585
6.24223 6.28664 10.824
6.24546 6.36383 11.0236
6.24203 6.44205 11.1804
6.23522 6.52127 11.2923
6.22745 6.60126 11.359
6.21996 6.6817 11.381
6.2126 6.76239 11.3605
6.20392 6.84345 11.3005
6.1914 6.92539 11.2055
6.17147 7.00882 11.0804
6.1394 7.09406 10.9314
6.08924 7.18092 10.7648
6.01447 7.26902 10.5871
5.90898 7.35804 10.4048
5.76814 7.44787 10.2241
5.58965 7.53842 10.051
5.37402 7.62962 9.89074
5.12424 7.72146 9.74864
4.84519 7.81406 9.63028
4.54288 7.90754 9.54197
4.22373 8.00195 9.49051
3.8942 8.09715 9.48258
3.56043 8.19293 9.52389
3.22781 8.28919 9.61843
2.90057 8.38595 9.76802
2.58148 8.48328 9.97202
2.27197 8.58122 10.2273
1.97251 8.6798 10.5282
1.68296 8.77907 10.8674
1.4029 8.87909 11.2365
1.13171 8.97997 11.6272
0.868769 9.0818 12.0314
0.613461 9.18466 12.442
0.365265 9.28864 12.8526
0.123684 9.39376 13.2576
-0.111752 9.50007 13.6521
-0.341458 9.60761 14.0313
-0.565817 9.7164 14.391
-0.785213 9.82643 14.7267
-1.00004 9.9377 15.0344
-1.2107 10.0501 15.3099
-1.41747 10.1636 15.5495
-1.62038 10.278 15.7499
-1.81897 10.3932 15.9088
-2.01216 10.5091 16.0247
-2.19834 10.6256 16.0977
-2.37551 10.743 16.1291
-2.5415 10.8612 16.1221
-2.69396 10.9806 16.0811
-2.83028 11.1012 16.0116
-2.94756 11.2231 15.92
-3.04282 11.3464 15.8129
-3.11357 11.4714 15.6974
-3.15841 11.5981 15.5806
-3.17734 11.7267 15.4689
-3.17165 11.8571 15.367
-3.14376 11.9893 15.277
-3.09691 12.1232 15.1989
-3.03472 12.2587 15.131
-2.96071 12.3955 15.0711
-2.87807 12.5335 15.0174
-2.78932 12.6726 14.9684
-2.69629 12.8128 14.9235
-2.60024 12.9539 14.8822
-2.50194 13.096 14.8444
-2.4018 13.2392 14.8101
-2.29998 13.3835 14.7792
-2.19658 13.5289 14.7512
-2.09169 13.6753 14.7258
-1.9854 13.8227 14.7027
-1.87782 13.9705 14.6815
-1.76898 14.1181 14.662
-1.65887 14.2643 14.644
-1.54739 14.4076 14.6273
-1.43444 14.5458 14.612
-1.31981 14.6763 14.5981
-1.20327 14.7962 14.5858
-1.08462 14.9022 14.575
-0.963721 14.9913 14.5658
-0.840545 15.0606 14.5574
-0.715056 15.1076 14.5489
-0.587217 15.1303 14.5395
-0.456989 15.1271 14.5287
-0.324311 15.097 14.5161
-0.189079 15.0397 14.502
-0.0512009 14.9555 14.4865
0.0893428 14.8454 14.4697
0.2325 14.711 14.4518
0.378206 14.5541 14.4332
0.526451 14.3769 14.4141
0.677302 14.1818 14.3949
0.830858 13.9714 14.376
0.987174 13.7484 14.3578
1.14615 13.5156 14.3405
1.30737 13.2758 14.3245
1.46997 13.0313 14.3099
1.63247 12.7842 14.2973
1.7929 12.5361 14.2872
1.94871 12.2885 14.2796
2.09676 12.0421 14.2748
2.23327 11.7977 14.2729
2.35391 11.5556 14.2742
2.45406 11.316 14.2793
2.5293 11.0791 14.2881
2.57578 10.845 14.3002
2.59047 10.614 14.3146
2.57131 10.3861 14.3303
2.51732 10.1614 14.3462
2.42877 9.94028 14.3618
2.30734 9.72282 14.3766
2.15619 9.50922 14.3907
1.97971 9.29969 14.404
1.78294 9.09445 14.4168
1.57092 8.89361 14.4294
1.3484 8.6971 14.4423
1.11996 8.50466 14.456
0.890353 8.3161 14.4706
0.664625 8.1313 14.4857
0.448008 7.95024 14.5011
0.2458 7.77289 14.5168
0.063496 7.59917 14.5337
-0.092965 7.42904 14.553
-0.216965 7.2625 14.576
-0.301309 7.09963 14.6034
-0.338821 6.9405 14.635
-0.32317 6.78518 14.6696
-0.24967 6.6337 14.7055
-0.116094 6.48599 14.7408
0.076762 6.34182 14.7738
0.325072 6.20092 14.8035
0.622527 6.06323 14.829
0.961094 5.92896 14.8495
1.33136 5.7983 14.8647
1.7223 5.67102 14.8758
2.12098 5.54648 14.886
2.51282 5.42412 14.9001
2.88234 5.30381 14.9237
3.21452 5.18601 14.9611
3.49566 5.07136 15.0132
3.7137 4.96018 15.0779
3.8586 4.85225 15.1501
3.92286 4.74718 15.2237
3.90223 4.64465 15.2928
3.79622 4.54432 15.353
3.60831 4.44568 15.4014
3.34583 4.34825 15.4372
3.01934 4.25225 15.4615
2.64152 4.15877 15.4775
2.22546 4.06908 15.4897
1.78297 3.98335 15.5018
1.32391 3.90062 15.5163
0.856741 3.81986 15.5328
0.389089 3.741 15.5485
-0.0725925 3.66477 15.5592
-0.523312 3.59175 15.5621
-0.959018 3.52178 15.5565
-1.37519 3.45433 15.5445
-1.76539 3.38925 15.5302
-2.1207 3.32727 15.518
-2.43035 3.26956 15.5116
-2.68323 3.21695 15.5123
-2.86986 3.16943 15.5193
-2.98413 3.12611 15.5301
-3.02439 3.08591 15.5419
-2.99377 3.04834 15.5519
-2.89919 3.01402 15.5572
-2.74981 2.98429 15.5562
-2.55582 2.96004 15.5498
-2.32799 2.94046 15.5406
-2.07659 2.9235 15.5311
-1.8093 2.90732 15.522
-1.52983 2.89155 15.5129
-1.23814 2.87735 15.5029
-0.932309 2.86628 15.4915
-0.610845 2.8587 15.479
-0.27348 2.85366 15.4666
0.0796717 2.85037 15.4555
0.448963 2.84927 15.446
0.83486 2.85132 15.4385
1.23709 2.8566 15.4341
1.65479 2.86415 15.4351
2.08777 2.87336 15.4441
2.53691 2.88474 15.4638
3.003 2.89886 15.4959
3.48556 2.91511 15.5404
3.9832 2.93218 15.5951
4.49474 2.94959 15.6549
5.0193 2.96793 15.7135
5.55529 2.98782 15.7656
6.0994 3.00902 15.8078
6.64654 3.03089 15.8384
7.18979 3.05295 15.8584
7.71997 3.07478 15.8723
8.22568 3.09586 15.8874
8.69474 3.11616 15.911
9.11582 3.1365 15.9474
9.47856 3.1577 15.9974
9.77301 3.17932 16.057
9.99011 3.19973 16.1188
10.1232 3.2175 16.1733
10.1687 3.23207 16.2133
10.1264 3.24345 16.235
10 3.25165 16.2386
9.79715 3.25673 16.2264
9.52916 3.25932 16.2024
9.20976 3.26105 16.1711
8.85333 3.26383 16.137
8.47287 3.26851 16.1036
8.07927 3.2746 16.073
7.68184 3.28139 16.0449
7.28854 3.28909 16.0159
6.90542 3.29868 15.9812
6.53588 3.31115 15.9362
6.18079 3.32691 15.8786
5.83954 3.34598 15.8077
5.51115 3.36837 15.7244
5.19509 3.39422 15.6304
4.89131 3.42385 15.5277
4.59948 3.4575 15.4195
4.31741 3.49488 15.311
4.03947 3.53503 15.2103
3.75625 3.57676 15.1267
3.45599 3.61971 15.0685
3.12648 3.66462 15.0397
2.75572 3.71194 15.0399
2.3323 3.76012 15.0643
1.84767 3.80606 15.1037
1.29875 3.84727 15.1475
0.688623 3.88362 15.1875
0.0254371 3.91745 15.2207
-0.679553 3.95211 15.2475
-1.41454 3.98952 15.271
-2.16829 4.02927 15.2961
-2.9288 4.07004 15.3278
-3.68189 4.11136 15.3699
-4.41176 4.15375 15.4234
-5.10238 4.19833 15.4879
-5.73814 4.24678 15.5625
-6.30454 4.30099 15.6452
-6.78975 4.36202 15.7322
-7.18604 4.42923 15.8177
-7.49037 4.50093 15.8953
-7.70439 4.57572 15.959
-7.8343 4.65327 16.0042
-7.88963 4.73442 16.0291
-7.88163 4.82048 16.0348
-7.82218 4.91204 16.0255
-7.72357 5.00816 16.0065
-7.59806 5.10694 15.9814
-7.45657 5.20696 15.9513
-7.30791 5.30794 15.9148
-7.15836 5.41041 15.8702
-7.01136 5.51489 15.8167
-6.86698 5.62147 15.7563
-6.72146 5.72981 15.6939
-6.56704 5.83958 15.6367
-6.3924 5.95132 15.5926
-6.18363 6.06688 15.5677
-5.92652 6.18861 15.564
-5.60967 6.31743 15.5787
-5.22637 6.45196 15.6058
-4.77484 6.58998 15.6382
-4.25784 6.73049 15.6682
-3.68192 6.87441 15.6889
-3.05603 7.02347 15.6977
-2.39073 7.17832 15.6968
-1.69773 7.33755 15.6916
-0.988683 7.49867 15.6856
-0.273176 7.65976 15.6786
0.442289 7.82029 15.6668
1.154 7.98084 15.645
1.85953 8.1422 15.6094
2.5556 8.30437 15.56
3.23634 8.4665 15.5023
3.89287 8.62768 15.4458
4.51441 8.78799 15.4012
5.08922 8.94815 15.3764
5.60464 9.10798 15.3745
6.04788 9.26555 15.3924
6.40822 9.41836 15.4215
6.67855 9.56486 15.4514
6.85574 9.7047 15.474
6.94039 9.83808 15.4853
6.93704 9.96517 15.4846
6.85416 10.0862 15.4734
6.70363 10.202 15.4538
6.49955 10.3145 15.4283
6.25638 10.4262 15.399
5.98696 10.5383 15.3677
5.70159 10.651 15.3351
5.40888 10.7636 15.301
5.11688 10.8766 15.2641
4.83335 10.9908 15.223
4.56557 11.1067 15.1776
4.32092 11.2241 15.1306
4.10843 11.3433 15.0863
3.93982 11.4662 15.0498
3.82827 11.5956 15.0246
3.78495 11.7328 15.0111
3.81643 11.8766 15.0079
3.92444 12.0243 15.0123
4.10633 12.1749 15.0196
4.35581 12.3294 15.0237
4.66439 12.4901 15.0202
5.02185 12.6574 15.0092
5.41608 12.8296 14.9934
5.83398 13.0041 14.9764
6.26245 13.1789 14.9615
6.68804 13.353 14.9533
7.09664 13.5258 14.9573
7.47425 13.6972 14.9771
7.80825 13.8682 15.0136
8.08745 14.0396 15.0645
8.30122 14.2116 15.1257
8.44014 14.3827 15.1906
8.49803 14.5508 15.2515
8.47361 14.7147 15.3016
8.37112 14.8741 15.3365
8.19975 15.03 15.3545
7.97227 15.1844 15.3567
7.70285 15.3395 15.3461
7.40463 15.4961 15.3266
7.08865 15.6536 15.3021
6.76453 15.811 15.2749
6.44096 15.9684 15.2442
6.12506 16.1268 15.2066
5.82148 16.2873 15.1583
5.53208 16.4505 15.0969
5.25659 16.6163 15.022
4.99375 16.7845 14.935
4.74215 16.9549 14.8383
4.50078 17.1275 14.7347
4.26917 17.3026 14.6266
4.04726 17.4802 14.5164
3.83518 17.6604 14.4056
3.63305 17.8431 14.2958
3.44081 18.0282 14.1881
3.25814 18.2158 14.0838
3.08456 18.4057 13.9839
2.9196 18.5979 13.889
2.76298 18.7926 13.7996
2.61447 18.99 13.7154
2.47391 19.1898 13.6364
2.34112 19.3914 13.5626
2.21607 19.5928 13.4948
2.09889 19.791 13.4346
1.98971 19.9813 13.3836
1.88845 20.158 13.3429
1.79476 20.3142 13.3125
1.70845 20.4429 13.2911
1.62968 20.5374 13.2776
1.55884 20.5915 13.2713
1.49619 20.6001 13.272
1.44176 20.5609 13.2789
1.39533 20.475 13.2903
1.35642 20.346 13.3034
1.32416 20.1793 13.3153
1.29765 19.9809 13.3239
1.27642 19.7574 13.329
1.26046 19.5162 13.3312
1.24977 19.2644 13.3315
1.24411 19.0082 13.3304
1.24301 18.7527 13.328
1.24608 18.5019 13.324
1.25313 18.2581 13.3184
1.26405 18.0224 13.3114
1.27887 17.7943 13.3044
1.29788 17.5713 13.2998
1.32168 17.3489 13.3011
1.35057 17.12 13.3118
1.38417 16.8756 13.3342
1.42168 16.6059 13.3683
1.46285 16.3025 13.4118
1.50819 15.9586 13.4616
1.55837 15.5696 13.5139
1.61359 15.132 13.565
1.67363 14.6449 13.6112
1.73824 14.1096 13.65
1.80726 13.5304 13.6805
1.88061 12.9132 13.7032
1.95815 12.265 13.72
2.03982 11.5934 13.7334
2.12562 10.9055 13.7462
2.21555 10.2083 13.7605
2.30951 9.50776 13.7773
2.40729 8.80905 13.7962
2.5086 8.11593 13.8163
2.61326 7.4306 13.837
2.7214 6.75346 13.8585
2.83345 6.08299 13.8825
2.94983 5.41596 13.9121
3.0706 4.7481 13.9505
3.19542 4.07539 13.9998
3.32428 3.39581 14.0601
3.45771 2.70953 14.1302
3.5959 2.01738 14.2083
3.73815 1.31968 14.2923
3.88361 0.617151 14.3803
4.03214 -0.087735 14.4702
4.18403 -0.790849 14.5592
4.33924 -1.48728 14.6437
4.49751 -2.17162 14.7207
4.65877 -2.83793 14.7887
4.82304 -3.48013 14.848
4.99002 -4.09262 14.9009
5.15925 -4.67007 14.9507
5.33073 -5.20672 15.0001
5.50498 -5.69668 15.0495
5.68234 -6.13519 15.0966
5.86256 -6.5198 15.1377
6.04515 -6.8506 15.1692
6.2299 -7.13019 15.1884
6.41689 -7.36332 15.1939
6.6062 -7.55635 15.1856
6.79777 -7.71643 15.1644
6.99159 -7.85038 15.1314
7.18787 -7.96424 15.0887
7.38689 -8.06335 15.0387
7.58879 -8.15255 14.9844
7.79356 -8.23563 14.9284
8.0012 -8.31462 14.8727
8.21179 -8.3894 14.8189
8.42543 -8.45786 14.7679
8.64217 -8.51667 14.7208
8.86183 -8.56206 14.6787
9.08426 -8.5903 14.6428
9.30946 -8.59796 14.6138
9.53757 -8.58226 14.5912
9.76869 -8.54173 14.573
10.0029 -8.47644 14.5562
10.2404 -8.38794 14.5378
10.4819 -8.27887 14.5154
10.7278 -8.15258 14.4883
10.9767 -8.01291 14.458
11.2251 -7.86393 14.4287
11.4657 -7.7096 14.4071
11.6889 -7.55294 14.4006
11.8835 -7.39549 14.4148
12.0381 -7.23782 14.4518
12.1405 -7.08067 14.5101
12.179 -6.92559 14.5844
12.1444 -6.77426 14.6667
12.0322 -6.62788 14.7487
11.8431 -6.48694 14.8234
11.5832 -6.35124 14.8864
11.2631 -6.21974 14.9365
10.8954 -6.09064 14.9754
10.4934 -5.96234 15.0066
10.0685 -5.83465 15.0344
9.63041 -5.70855 15.0621
9.18777 -5.58483 15.091
8.74834 -5.46319 15.1187
8.31828 -5.34249 15.1409
7.90124 -5.22159 15.1534
7.49837 -5.09988 15.1536
7.10908 -4.97714 15.1408
6.73213 -4.85325 15.1161
6.36633 -4.72809 15.0814
6.01089 -4.60153 15.0385
5.66553 -4.47351 14.9894
5.33025 -4.344 14.9355
5.00512 -4.21298 14.8783
4.69005 -4.08039 14.819
4.3848 -3.94625 14.7588
4.08902 -3.81059 14.6991
3.80233 -3.6735 14.6407
3.52443 -3.53509 14.5843
3.25504 -3.39542 14.5305
2.99391 -3.2546 14.4796
2.74082 -3.1127 14.4318
2.49559 -2.96982 14.3875
2.25813 -2.82604 14.3469
2.02835 -2.68148 14.3101
1.80617 -2.53617 14.2769
1.59136 -2.3901 14.247
1.38347 -2.24319 14.2196
1.18187 -2.09532 14.194
0.986064 -1.94645 14.1697
0.796279 -1.79667 14.1475
0.614207 -1.64636 14.1289
0.443831 -1.49608 14.1169
0.292235 -1.34624 14.1157
0.169969 -1.1964 14.1298
0.0902936 -1.04523 14.163
0.0670092 -0.891331 14.2164
0.111832 -0.734373 14.2873
0.23266 -0.575301 14.3698
0.432765 -0.415488 14.4569
0.710383 -0.255795 14.5419
1.05913 -0.0960348 14.6198
1.46946 0.0649902 14.688
1.93042 0.22866 14.747
2.43053 0.39531 14.7994
2.95808 0.56382 14.8483
3.50217 0.73259 14.8946
4.05364 0.9008 14.9374
4.6046 1.06854 14.9757
5.1468 1.2359 15.0109
5.67054 1.40241 15.0466
6.16521 1.56764 15.0873
6.62042 1.73217 15.1363
7.02607 1.89707 15.1945
7.37152 2.06242 15.2608
7.64608 2.22663 15.3307
7.84128 2.3876 15.3976
7.95289 2.54399 15.4546
7.98185 2.69549 15.497
7.93423 2.84268 15.5229
7.82037 2.98689 15.533
7.65336 3.13001 15.53
7.44684 3.27354 15.5176
7.21325 3.41762 15.4996
6.9634 3.56133 15.479
6.70695 3.70391 15.4562
6.45199 3.8456 15.4292
6.20356 3.98729 15.3946
5.96229 4.12964 15.3504
5.7244 4.27282 15.2977
5.48309 4.41695 15.2398
5.23052 4.56239 15.1809
4.95934 4.70939 15.1252
4.66361 4.85739 15.0753
4.33969 5.00519 15.0325
3.98706 5.15203 14.9969
3.60847 5.29849 14.9685
3.20909 5.446 14.9471
2.79496 5.59522 14.9321
2.3719 5.74541 14.9217
1.94572 5.8954 14.913
1.5224 6.04482 14.9022
1.10746 6.19414 14.8849
0.705174 6.34393 14.8581
0.318398 6.49435 14.8206
-0.0507939 6.64524 14.7731
-0.400332 6.79612 14.7181
-0.727659 6.94579 14.6585
-1.02958 7.09182 14.5979
-1.30253 7.23034 14.539
-1.54311 7.35641 14.4838
-1.74872 7.46485 14.4333
-1.91788 7.55118 14.3876
-2.05046 7.61229 14.346
-2.14779 7.64656 14.3072
-2.21259 7.65378 14.2696
-2.24867 7.63504 14.2314
-2.26029 7.59285 14.1914
-2.25168 7.53101 14.1492
-2.22666 7.45427 14.1054
-2.18875 7.36777 14.0608
-2.14124 7.27657 14.016
-2.08712 7.18497 13.9714
-2.02882 7.09587 13.9275
-1.96783 7.00984 13.8861
-1.90447 6.92434 13.8514
-1.83802 6.83302 13.8295
-1.76786 6.72535 13.8272
-1.69451 6.58719 13.8487
-1.61912 6.40376 13.8936
-1.54182 6.16337 13.9569
-1.4612 5.85913 14.032
-1.37546 5.48869 14.1123
-1.28367 5.05377 14.1914
-1.18636 4.55947 14.2633
-1.08534 4.01288 14.3248
-0.982391 3.42258 14.3766
-0.877726 2.79965 14.4235
-0.770128 2.15725 14.4702
-0.658609 1.50786 14.5175
-0.54342 0.860689 14.5627
-0.425554 0.22141 14.601
-0.305706 -0.406821 14.6275
-0.18379 -1.02243 14.6387
-0.0593045 -1.62511 14.6339
0.0681935 -2.21553 14.6144
0.199065 -2.79474 14.5827
0.333805 -3.36368 14.5419
0.473105 -3.92288 14.4944
0.617688 -4.47248 14.4421
0.76793 -5.01242 14.3864
0.923183 -5.54262 14.3292
1.0809 -6.06318 14.2731
1.23612 -6.57439 14.2226
1.38194 -7.07626 14.1823
1.5109 -7.56812 14.1562
1.61591 -8.0491 14.1463
1.69059 -8.51933 14.1528
1.72991 -8.98042 14.1737
1.73173 -9.43424 14.2051
1.69773 -9.88144 14.243
1.63305 -10.3212 14.284
1.54466 -10.7524 14.3258
1.43958 -11.1753 14.3663
1.32419 -11.5912 14.404
1.20453 -12.0014 14.4372
1.08625 -12.4063 14.4637
0.973865 -12.806 14.4809
0.869855 -13.2007 14.4871
0.774773 -13.5905 14.4817
0.687945 -13.9748 14.4658
0.608301 -14.3522 14.4412
0.534931 -14.7198 14.4104
0.467271 -15.0738 14.3764
0.405058 -15.41 14.3424
0.34827 -15.7236 14.3112
0.297054 -16.0089 14.2849
0.251523 -16.2602 14.2641
0.211552 -16.4723 14.2481
0.176783 -16.6412 14.2349
0.146815 -16.7651 14.2223
0.121416 -16.8439 14.2081
0.10052 -16.8796 14.191
0.0840096 -16.8756 14.1703
0.0716311 -16.837 14.1459
0.0631603 -16.7698 14.1183
0.0585349 -16.6796 14.0881
0.0578624 -16.572 14.0561
0.0613706 -16.4516 14.0234
0.0692554 -16.3224 13.991
0.0816053 -16.1882 13.96
0.0984605 -16.0517 13.9309
0.119844 -15.9151 13.904
0.145736 -15.7797 13.8792
0.176063 -15.6463 13.8564
0.210745 -15.5153 13.8357
0.249752 -15.3863 13.8173
0.293146 -15.2582 13.8015
0.341089 -15.1284 13.789
0.393781 -14.9929 13.7804
0.451228 -14.847 13.7767
0.51305 -14.6853 13.7788
0.578631 -14.5028 13.7881
0.64765 -14.2951 13.8059
0.720435 -14.0587 13.8332
0.79748 -13.7921 13.8697
0.8786 -13.4968 13.914
0.962947 -13.1771 13.9634
1.04995 -12.8379 14.0143
1.13989 -12.4842 14.0636
1.23326 -12.1205 14.1085
1.32976 -11.7514 14.1476
1.42778 -11.381 14.1802
1.52442 -11.0128 14.2068
1.61581 -10.6484 14.2289
1.69767 -10.2881 14.248
1.76562 -9.93116 14.2656
1.81541 -9.57676 14.2829
1.84297 -9.2245 14.3005
1.84488 -8.87453 14.3182
1.81887 -8.52727 14.3352
1.76442 -8.183 14.35
1.68293 -7.84166 14.3614
1.57747 -7.50305 14.3687
1.45236 -7.16691 14.3717
1.31271 -6.83292 14.3706
1.16404 -6.50069 14.3659
1.01173 -6.16971 14.3576
0.860317 -5.83946 14.3461
0.712346 -5.50963 14.3323
0.567038 -5.18045 14.319
0.419479 -4.85265 14.312
0.261272 -4.52678 14.3191
0.0825916 -4.2024 14.348
-0.12605 -3.87864 14.4041
-0.373368 -3.55615 14.4887
-0.666282 -3.23782 14.5976
-1.00749 -2.92671 14.7214
-1.39416 -2.62349 14.8505
-1.81862 -2.32613 14.9776
-2.27071 -2.03177 15.0983
-2.74072 -1.73917 15.2099
-3.22074 -1.44917 15.3116
-3.70403 -1.1629 15.4028
-4.18427 -0.88037 15.4821
-4.65579 -0.600651 15.5476
-5.11383 -0.322955 15.598
-5.55419 -0.0472248 15.6341
-5.9723 0.226332 15.658
-6.36221 0.498069 15.6735
-6.71638 0.769026 15.6843
-7.02639 1.04025 15.6937
-7.2842 1.31216 15.703
-7.48323 1.58458 15.7119
-7.61948 1.85724 15.7185
-7.69234 2.13014 15.7211
-7.70488 2.40369 15.7185
-7.66325 2.67863 15.7105
-7.57545 2.95568 15.6981
-7.45061 3.23496 15.6827
-7.29825 3.51587 15.6659
-7.12743 3.79749 15.6477
-6.94591 4.07917 15.6275
-6.75947 4.36039 15.6037
-6.5718 4.6402 15.5759
-6.38464 4.91664 15.5446
-6.19834 5.18658 15.5116
-6.01269 5.44584 15.479
-5.82739 5.68964 15.4483
-5.64213 5.91323 15.4199
-5.4565 6.11217 15.393
-5.27017 6.28232 15.3668
-5.08289 6.42 15.34
-4.89447 6.52268 15.3113
-4.70459 6.58946 15.2795
-4.51296 6.62137 15.2437
-4.31959 6.62106 15.2037
-4.12512 6.59238 15.1602
-3.93128 6.53973 15.115
-3.74082 6.4678 15.0707
-3.55729 6.38151 15.0303
-3.38478 6.28585 14.9962
-3.22795 6.18535 14.9695
-3.09196 6.08365 14.95
-2.98197 5.98331 14.9364
-2.9025 5.88603 14.9272
-2.85709 5.79277 14.9204
-2.84828 5.70398 14.9141
-2.87763 5.61968 14.9073
-2.94573 5.53958 14.8999
-3.05192 5.463 14.8928
-3.19399 5.38883 14.8869
-3.36818 5.31565 14.883
-3.56949 5.24191 14.8813
-3.79228 5.1661 14.8814
-4.03092 5.08655 14.8833
-4.28015 5.00121 14.8866
-4.53516 4.9076 14.891
-4.79142 4.80323 14.8961
-5.0448 4.68622 14.9011
-5.29186 4.55568 14.9051
-5.53023 4.41167 14.9074
-5.75867 4.25503 14.9074
-5.9766 4.08714 14.9049
-6.18363 3.90988 14.9003
-6.37907 3.72549 14.8944
-6.56169 3.53647 14.8882
-6.72973 3.34543 14.8822
-6.881 3.15475 14.877
-7.01287 2.96647 14.8725
-7.12246 2.78218 14.8689
-7.20666 2.60301 14.8663
-7.2622 2.42965 14.8649
-7.28574 2.26247 14.8646
-7.27416 2.10157 14.8651
-7.22499 1.94695 14.8659
-7.13693 1.79844 14.8664
-7.01028 1.65582 14.8663
-6.84697 1.5188 14.8654
-6.65024 1.38724 14.8637
-6.4241 1.26108 14.8608
-6.17289 1.14028 14.8566
-5.90107 1.0246 14.8511
-5.61313 0.913572 14.8443
-5.31344 0.806656 14.836
-5.00621 0.703468 14.8267
-4.69583 0.603714 14.8168
-4.38756 0.506996 14.8079
-4.08804 0.412836 14.8025
-3.80533 0.321014 14.8039
-3.54866 0.231782 14.8152
-3.32835 0.145554 14.8385
-3.15578 0.0622633 14.8749
-3.04273 -0.0188953 14.9237
-2.99956 -0.0990819 14.9824
-3.03303 -0.179323 15.0473
-3.14469 -0.260251 15.1142
-3.33055 -0.341857 15.1794
-3.58189 -0.423171 15.2403
-3.88672 -0.502482 15.2963
-4.23176 -0.578531 15.3482
-4.60375 -0.651609 15.398
-4.989 -0.7231 15.4485
-5.37221 -0.794087 15.502
-5.73645 -0.864526 15.5601
-6.06449 -0.933245 15.623
-6.34055 -0.998479 15.6909
-6.55225 -1.05895 15.7627
-6.69211 -1.11482 15.8359
-6.7578 -1.16745 15.9059
-6.75152 -1.21795 15.9664
-6.67896 -1.26618 16.0101
-6.54802 -1.31098 16.0318
-6.36754 -1.35125 16.0303
-6.1468 -1.3868 16.009
-5.89535 -1.41855 15.9733
-5.62245 -1.44776 15.9279
-5.33627 -1.4752 15.876
-5.04326 -1.5008 15.819
-4.74787 -1.52404 15.7571
-4.45274 -1.5444 15.6903
-4.159 -1.5616 15.6187
-3.86671 -1.57559 15.5431
-3.57541 -1.58639 15.4646
-3.28458 -1.59406 15.3845
-2.99392 -1.59859 15.304
-2.70336 -1.59995 15.2244
-2.41288 -1.59808 15.1465
-2.12245 -1.59293 15.0715
-1.8321 -1.58458 15.0004
-1.54189 -1.57323 14.9345
-1.25193 -1.55927 14.8747
-0.962208 -1.54315 14.8222
-0.672589 -1.52537 14.7775
-0.382932 -1.5064 14.7411
-0.0932354 -1.48672 14.7132
0.196389 -1.46667 14.6939
0.485839 -1.4464 14.6828
0.775074 -1.4258 14.6794
1.06415 -1.40466 14.6825
1.35321 -1.38267 14.6906
1.64251 -1.3595 14.7017
1.93226 -1.33476 14.7136
2.22263 -1.30808 14.7244
2.51364 -1.27898 14.7322
2.80516 -1.24685 14.7358
3.09696 -1.21102 14.7346
3.38872 -1.17086 14.7286
3.68005 -1.12594 14.718
3.97046 -1.076 14.7038
4.25937 -1.02102 14.6869
4.54615 -0.961263 14.6684
4.83029 -0.897201 14.6492
5.11148 -0.829404 14.6302
5.38959 -0.758451 14.6119
5.66463 -0.684881 14.5949
5.93663 -0.609133 14.5792
6.20551 -0.531565 14.5649
6.47111 -0.452537 14.552
6.73342 -0.3725 14.5404
6.99263 -0.291988 14.5302
7.24901 -0.211553 14.5217
7.50284 -0.131681 14.5152
7.75432 -0.0527851 14.5111
8.00368 0.0247938 14.5095
8.25114 0.100766 14.5106
8.49688 0.174869 14.5145
8.74114 0.246874 14.5212
8.9842 0.31662 14.5307
9.22641 0.384031 14.5429
9.46815 0.449084 14.5578
9.70976 0.511711 14.5753
9.9516 0.571801 14.5952
10.1941 0.629313 14.6175
10.4377 0.68434 14.6421
10.6827 0.737032 14.6689
10.9295 0.787547 14.6978
11.1784 0.836064 14.7288
11.4296 0.882708 14.7618
11.6832 0.927591 14.7965
11.9396 0.970859 14.8326
12.199 1.01267 14.8698
12.4615 1.05326 14.9078
12.7272 1.09295 14.9462
12.9958 1.13211 14.9847
13.267 1.17102 15.0231
13.5406 1.20983 15.0614
13.8166 1.24853 15.0996
14.0951 1.28716 15.1377
14.3763 1.32579 15.1759
14.6602 1.36458 15.2142
14.947 1.40369 15.2522
15.2366 1.44331 15.2892
15.5288 1.4836 15.3245
15.8231 1.52457 15.3585
16.1186 1.56604 15.3925
16.4135 1.60784 15.4299
16.7047 1.64986 15.4754
16.9867 1.69205 15.5343
17.2517 1.73466 15.6104
17.4903 1.77842 15.705
17.6923 1.82441 15.8168
17.8476 1.87353 15.9424
17.9472 1.92609 16.0769
17.9849 1.98189 16.215
17.9584 2.04058 16.3513
17.8703 2.10215 16.4808
17.7273 2.16741 16.5999
17.5395 2.23784 16.707
17.3178 2.31423 16.8024
17.0723 2.39553 16.8877
16.8125 2.47945 16.9651
16.5469 2.56409 17.0359
16.2831 2.64895 17.0995
16.0268 2.73446 17.1537
15.7816 2.82095 17.1963
15.5485 2.90833 17.2261
15.3275 2.99649 17.2429
15.1174 3.08573 17.2475
14.9167 3.17659 17.2415
14.7241 3.26967 17.2264
14.5387 3.36535 17.2039
14.36 3.46373 17.1758
14.1881 3.56466 17.1438
14.0235 3.66786 17.1101
13.8667 3.77307 17.0772
13.7184 3.88002 17.0474
13.5787 3.98845 17.0227
13.4472 4.09811 17.0038
13.3234 4.20883 16.9902
13.2068 4.3206 16.9803
13.097 4.43345 16.9721
12.9939 4.54745 16.9638
12.8973 4.66259 16.9543
12.8073 4.77887 16.943
12.7238 4.89633 16.93
12.6472 5.0151 16.9156
12.5776 5.13531 16.9003
12.5153 5.2571 16.8845
12.46 5.3805 16.8689
12.4101 5.50546 16.8546
12.3627 5.63173 16.8434
12.3132 5.75902 16.8377
12.2561 5.88726 16.8396
12.1855 6.01661 16.85
12.0956 6.14701 16.8686
11.9804 6.27788 16.8938
11.8347 6.40833 16.923
11.6552 6.53762 16.9532
11.4405 6.66545 16.9821
11.1924 6.79202 17.0081
10.9147 6.91788 17.0309
10.6134 7.04368 17.0511
10.2944 7.16985 17.0699
9.96387 7.29639 17.0885
9.62691 7.42306 17.1067
9.28825 7.54967 17.1223
8.95189 7.67631 17.1309
8.62077 7.80317 17.127
8.29653 7.9304 17.1054
7.97969 8.05797 17.0633
7.67017 8.18582 17.0006
7.36766 8.31386 16.9209
7.07205 8.44207 16.8307
6.78345 8.57046 16.7379
6.5022 8.69913 16.6506
6.22867 8.82818 16.5747
5.96314 8.95757 16.5132
5.70574 9.08691 16.4652
5.45643 9.21524 16.4278
5.21507 9.34082 16.3972
4.98142 9.46106 16.3707
4.75523 9.57251 16.3483
4.53631 9.67096 16.332
4.32465 9.75171 16.3253
4.12026 9.80993 16.3313
3.92308 9.84114 16.3514
3.73285 9.84181 16.384
3.54917 9.8096 16.4252
3.37157 9.74358 16.4695
3.19962 9.64404 16.5107
3.03298 9.51232 16.5422
2.87134 9.35043 16.5581
2.71451 9.16079 16.553
2.56238 8.94583 16.5229
2.41495 8.70775 16.4658
2.27219 8.44835 16.3821
2.1341 8.16904 16.2751
2.00072 7.87107 16.1503
1.87221 7.55563 16.0145
1.74875 7.22409 15.8746
1.63052 6.87824 15.7363
1.5177 6.52036 15.6035
1.41034 6.15319 15.4786
1.30847 5.77968 15.3638
1.21209 5.40271 15.2619
1.12132 5.02503 15.177
1.03638 4.64904 15.1133
0.957488 4.27667 15.0739
0.884676 3.90931 15.0597
0.81782 3.54779 15.0685
0.756689 3.19247 15.095
0.700985 2.84339 15.1323
0.650389 2.50038 15.1722
0.604615 2.16321 15.2067
0.563399 1.83163 15.2279
0.526486 1.50542 15.2287
0.493608 1.18435 15.2028
0.464502 0.868117 15.145
0.438961 0.556442 15.0513
0.416912 0.249041 14.9196
0.398435 -0.0542993 14.7502
0.383717 -0.35369 14.546
0.372981 -0.649059 14.3122
0.366458 -0.940033 14.0559
0.364399 -1.22583 13.7854
0.367137 -1.50513 13.5099
0.375107 -1.77602 13.239
0.388811 -2.03578 12.9823
0.408799 -2.28098 12.7489
0.435606 -2.50757 12.5471
0.469688 -2.71125 12.3839
0.511394 -2.88783 12.2642
0.560928 -3.03366 12.1893
0.618265 -3.14624 12.157
0.683131 -3.22445 12.1609
0.754998 -3.26865 12.1922
0.833216 -3.28034 12.2408
0.917191 -3.26182 12.2967
1.00644 -3.21577 12.3519
1.1005 -3.14502 12.4003
1.19899 -3.05246 12.4384
1.30165 -2.94092 12.4651
1.40837 -2.81323 12.4805
1.51907 -2.67216 12.4861
1.63366 -2.52037 12.4835
1.75221 -2.36037 12.4744
1.87493 -2.19453 12.461
2.00212 -2.02503 12.4455
2.13401 -1.85375 12.4301
2.2704 -1.68219 12.4171
2.41016 -1.51141 12.4086
2.5507 -1.34228 12.4063
2.68785 -1.17535 12.4117
2.81645 -1.01078 12.4251
2.93089 -0.848283 12.4462
3.02549 -0.687502 12.4735
3.09472 -0.52843 12.5054
3.1338 -0.371485 12.5398
3.13969 -0.217166 12.5743
3.11179 -0.0656266 12.6061
3.05217 0.0834925 12.6329
2.96491 0.230873 12.6533
2.85513 0.377064 12.667
2.72815 0.52214 12.6745
2.5892 0.665832 12.6772
2.44343 0.807971 12.6762
2.29569 0.948741 12.6722
2.14996 1.0886 12.6657
2.0089 1.22804 12.6567
1.87397 1.36745 12.6455
1.74582 1.50706 12.6328
1.62465 1.64701 12.6188
1.51036 1.78734 12.6039
1.40281 1.92808 12.5884
1.30186 2.0693 12.5724
1.20743 2.21114 12.556
1.11941 2.35375 12.5397
1.03769 2.49728 12.5238
0.962157 2.64186 12.5086
0.892676 2.78764 12.4945
0.829128 2.93471 12.4814
0.771383 3.08313 12.4695
0.719335 3.23288 12.4587
0.672934 3.38397 12.4491
0.632159 3.53638 12.4406
0.596958 3.69011 12.4329
0.567214 3.84507 12.426
0.542795 4.00118 12.4198
0.52357 4.15833 12.4142
0.509352 4.31639 12.4092
0.49991 4.47524 12.4052
0.494988 4.63474 12.402
0.494333 4.7948 12.3991
0.497701 4.95535 12.395
0.504871 5.11646 12.3869
0.515645 5.2784 12.3711
0.529837 5.4416 12.3439
0.547288 5.60649 12.3026
0.567903 5.77305 12.2475
0.591733 5.94014 12.1824
0.619114 6.10489 12.1149
0.650616 6.26223 12.0555
0.686507 6.40467 12.0145
0.72626 6.52286 11.9991
0.769023 6.60715 12.011
0.814588 6.64935 12.0465
0.863448 6.64316 12.0985
0.916029 6.58399 12.1587
0.972313 6.4692 12.2192
1.03205 6.29866 12.2734
1.09501 6.07498 12.3176
1.16102 5.80287 12.3503
1.22978 5.4883 12.3722
1.30105 5.13778 12.3858
1.37513 4.7583 12.3946
1.45278 4.35731 12.4018
1.53473 3.94205 12.409
1.62117 3.51884 12.4166
1.71195 3.09269 12.424
1.80688 2.66725 12.4308
1.90583 2.24498 12.4368
2.00878 1.82742 12.4423
2.11575 1.41553 12.4477
2.22677 1.00996 12.4531
2.34161 0.611185 12.4588
2.45954 0.219505 12.4648
2.57909 -0.164976 12.4711
2.69795 -0.54233 12.4779
2.81302 -0.912706 12.4858
2.92059 -1.2762 12.4953
3.01668 -1.63284 12.5071
3.09746 -1.98274 12.5219
3.15978 -2.32622 12.5398
3.20179 -2.6638 12.5605
3.22328 -2.99592 12.583
3.22575 -3.32275 12.606
3.21184 -3.64418 12.6282
3.18477 -3.96023 12.6489
3.14793 -4.27127 12.6673
3.10496 -4.57784 12.683
3.05978 -4.8803 12.6957
3.01621 -5.1788 12.705
2.97728 -5.47334 12.7104
2.9448 -5.76394 12.7122
2.91907 -6.05069 12.7108
2.89867 -6.33377 12.7072
2.88009 -6.61341 12.7028
2.85769 -6.88978 12.7
2.82407 -7.16263 12.7015
2.77087 -7.43111 12.7104
2.6896 -7.69414 12.7301
2.57254 -7.95121 12.7631
2.41379 -8.20304 12.8102
2.21096 -8.45089 12.8694
1.96612 -8.6952 12.9374
1.68558 -8.93498 13.0111
1.37798 -9.16886 13.0876
1.05197 -9.39673 13.1645
0.715103 -9.61992 13.24
0.37422 -9.8397 13.3123
0.0356483 -10.0561 13.3786
-0.295475 -10.2677 13.4355
-0.61605 -10.4727 13.4807
-0.925023 -10.6689 13.5134
-1.22258 -10.8541 13.5345
-1.50915 -11.0254 13.546
-1.78488 -11.1797 13.5507
-2.04949 -11.3133 13.5515
-2.30254 -11.4228 13.5507
-2.54367 -11.5055 13.5495
-2.77264 -11.5593 13.5476
-2.98942 -11.583 13.5441
-3.19434 -11.5766 13.5377
-3.38805 -11.5414 13.5277
-3.57122 -11.4796 13.5144
-3.7441 -11.3947 13.4981
-3.90613 -11.2903 13.4796
-4.05565 -11.1703 13.4594
-4.18995 -11.0383 13.438
-4.30596 -10.8972 13.4163
-4.40124 -10.7501 13.3954
-4.47469 -10.5996 13.3769
-4.52649 -10.4484 13.3621
-4.55764 -10.2978 13.3517
-4.5695 -10.1484 13.3453
-4.56381 -10.0002 13.342
-4.54289 -9.85334 13.3406
-4.50949 -9.70804 13.3401
-4.46613 -9.56456 13.34
-4.41477 -9.42289 13.3401
-4.3568 -9.28296 13.3407
-4.29306 -9.14479 13.342
-4.2238 -9.00837 13.3439
-4.14884 -8.87356 13.3456
-4.06789 -8.74006 13.3467
-3.98115 -8.60759 13.3466
-3.88935 -8.47601 13.3455
-3.79361 -8.34524 13.3437
-3.69498 -8.21521 13.3411
-3.59417 -8.08578 13.3372
-3.49149 -7.9568 13.3307
-3.38695 -7.82816 13.3198
-3.28045 -7.69979 13.3027
-3.17185 -7.57166 13.2778
-3.06113 -7.44377 13.2441
-2.94829 -7.31614 13.2006
-2.83334 -7.18877 13.1463
-2.71631 -7.06164 13.0795
-2.59723 -6.93478 12.9972
-2.47616 -6.80823 12.8954
-2.35323 -6.68209 12.7698
-2.22853 -6.55642 12.6155
-2.10212 -6.43124 12.4289
-1.97394 -6.3065 12.2079
-1.84382 -6.18212 11.9528
-1.71144 -6.05799 11.6667
-1.57624 -5.93401 11.3546
-1.43752 -5.81004 11.0236
-1.29455 -5.68587 10.6815
-1.14681 -5.56128 10.3364
-0.994371 -5.43602 9.99654
-0.838367 -5.30986 9.67048
-0.681133 -5.18265 9.36708
-0.525851 -5.05417 9.09513
-0.375846 -4.9242 8.86237
-0.234112 -4.79268 8.67442
-0.103158 -4.65984 8.53423
0.0150732 -4.52597 8.44233
0.11917 -4.39117 8.3974
0.208154 -4.25552 8.39667
0.281801 -4.11925 8.43595
0.341147 -3.98262 8.50923
0.388436 -3.84585 8.60855
0.426356 -3.70918 8.7245
0.457297 -3.5729 8.84715
0.483133 -3.43717 8.96717
0.505367 -3.30194 9.07697
0.525405 -3.16712 9.17131
0.54475 -3.0327 9.24733
0.565126 -2.8987 9.30419
0.588443 -2.76503 9.34245
0.616451 -2.63143 9.36369
0.650294 -2.49757 9.37022
0.690371 -2.36318 9.36492
0.736572 -2.22809 9.35098
0.788581 -2.09223 9.33156
0.846048 -1.95557 9.3091
0.908672 -1.81812 9.28451
0.976213 -1.67992 9.25673
1.04844 -1.54105 9.22285
1.12499 -1.40156 9.17909
1.20527 -1.26155 9.12219
1.28835 -1.12111 9.05098
1.37294 -0.980263 8.9673
1.45728 -0.838969 8.87614
1.53913 -0.697132 8.78483
1.61601 -0.554591 8.70171
1.68544 -0.411156 8.63449
1.74541 -0.266649 8.58854
1.79473 -0.120999 8.56574
1.83326 0.025731 8.56415
1.86187 0.173388 8.57878
1.88218 0.321779 8.60325
1.89627 0.470684 8.63142
1.90639 0.619865 8.65844
1.91483 0.769126 8.68111
1.92375 0.918358 8.69775
1.935 1.06757 8.70788
1.94993 1.21684 8.71186
1.96929 1.36628 8.71046
1.99328 1.51596 8.70443
2.02175 1.66592 8.69406
2.05443 1.81622 8.67908
2.09108 1.96691 8.65883
2.13162 2.11809 8.63278
2.17609 2.26986 8.60122
2.22463 2.42232 8.56557
2.27735 2.57554 8.52812
2.3343 2.72953 8.49124
2.39544 2.88427 8.45657
2.4607 3.03971 8.42444
2.52995 3.19575 8.39386
2.60298 3.35224 8.36284
2.67952 3.509 8.32902
2.75936 3.66586 8.29019
2.84236 3.82266 8.2447
2.92857 3.97931 8.1916
3.01821 4.13576 8.13059
3.11165 4.29209 8.06214
3.20927 4.44856 7.98787
3.31098 4.60553 7.91118
3.41562 4.76325 7.83759
3.52049 4.92148 7.77443
3.62171 5.07924 7.72954
3.71514 5.23456 7.70922
3.79703 5.38403 7.71652
3.86418 5.52243 7.75045
3.91423 5.64322 7.8062
3.9463 5.74005 7.87649
3.9615 5.80821 7.9536
3.96267 5.84506 8.0309
3.95366 5.84972 8.10316
3.93842 5.82264 8.16636
3.92052 5.7654 8.21788
3.90288 5.68076 8.25708
3.88799 5.57281 8.28532
3.87788 5.44692 8.30508
3.87383 5.30907 8.31836
3.87607 5.16477 8.32541
3.88399 5.01843 8.32421
3.89658 4.8731 8.31103
3.91305 4.73062 8.28155
3.93302 4.59183 8.23235
3.95654 4.45694 8.1622
3.98401 4.32583 8.07281
4.01599 4.19833 7.96878
4.05307 4.07442 7.85664
4.09558 3.95421 7.74353
4.14316 3.83791 7.63594
4.19436 3.72564 7.53896
4.24639 3.61742 7.45648
4.29542 3.51324 7.39146
4.33734 3.41319 7.34611
4.36837 3.31738 7.32156
4.38542 3.22566 7.31713
4.38633 3.13756 7.3298
4.37023 3.05255 7.35443
4.33774 2.97039 7.38485
4.29082 2.89112 7.41548
4.23234 2.81477 7.44247
4.16557 2.74122 7.46413
4.09394 2.6702 7.48034
4.02079 2.60151 7.49163
3.94912 2.53509 7.49826
3.88119 2.47095 7.49982
3.81833 2.40911 7.49509
3.76107 2.34954 7.48225
3.70938 2.29214 7.4592
3.66308 2.23676 7.42402
3.62196 2.18325 7.37535
3.58596 2.1315 7.31259
3.55505 2.08142 7.23586
3.52922 2.03293 7.1459
3.50838 1.98598 7.04404
3.49244 1.94059 6.93231
3.48138 1.8968 6.81348
3.47527 1.85466 6.69084
3.47417 1.81424 6.56787
3.47812 1.77561 6.44813
3.48714 1.73885 6.3352
3.50129 1.70403 6.23247
3.52062 1.67117 6.1424
3.54511 1.64025 6.0655
3.57462 1.61113 5.99962
3.60889 1.58367 5.93998
3.64757 1.55762 5.87998
3.6903 1.53274 5.81234
3.7367 1.50875 5.73
3.78634 1.48542 5.62678
3.83873 1.46254 5.4976
3.89334 1.43998 5.33862
3.94976 1.41767 5.14744
4.00786 1.39561 4.9233
4.06798 1.37391 4.66711
4.13116 1.35282 4.38128
4.19908 1.3328 4.0695
4.27357 1.31452 3.73734
4.35521 1.29862 3.39408
4.44149 1.28527 3.05571
4.5251 1.27346 2.74713
4.59404 1.26078 2.50043
4.63564 1.24467 2.34549
4.6431 1.2242 2.29404
4.61881 1.20032 2.32932
4.57089 1.1744 2.41414
4.5084 1.14751 2.50845
4.43853 1.12069 2.58341
4.3658 1.09489 2.62675
4.29273 1.07044 2.64087
4.22072 1.04692 2.63778
4.15137 1.02386 2.63276
4.08731 1.00144 2.63874
4.03161 0.980383 2.66294
3.98664 0.961252 2.70572
3.95383 0.944174 2.76023
3.93372 0.928915 2.81265
3.92592 0.915141 2.84395
3.92853 0.902756 2.83449
3.93708 0.892115 2.77197
3.94286 0.883817 2.65987
3.93262 0.878221 2.52137
3.89205 0.875467 2.39274
3.81302 0.875915 2.30467
3.69881 0.879787 2.26386
3.56074 0.886399 2.2551
3.4113 0.894594 2.25827
3.25954 0.903684 2.26079
3.11014 0.913291 2.26036
2.96485 0.922708 2.26141
2.82465 0.930987 2.27005
2.69098 0.937525 2.29007
2.56566 0.942314 2.32163
2.45015 0.945629 2.36221
2.34491 0.94765 2.40828
2.24955 0.948405 2.45645
2.16335 0.947933 2.50393
2.08565 0.94636 2.54872
2.01593 0.943854 2.58983
1.95382 0.940528 2.62736
1.89904 0.936425 2.66246
1.85141 0.931587 2.697
1.81096 0.926165 2.73287
1.77796 0.920513 2.77067
1.7529 0.915265 2.80791
1.73629 0.911298 2.83712
1.72807 0.909448 2.84561
1.72691 0.909911 2.81853
1.72938 0.911497 2.74583
1.72979 0.911204 2.63055
1.72136 0.904775 2.49336
1.69904 0.888765 2.36703
1.66315 0.863332 2.27929
1.62099 0.833412 2.2355
1.58422 0.80667 2.22043
1.56334 0.789434 2.21423
1.56265 0.783507 2.20488
1.57858 0.786003 2.19097
1.60233 0.791824 2.17681
1.62497 0.796782 2.16606
1.64095 0.799205 2.15967
1.64898 0.799505 2.15676
1.6509 0.798785 2.15604
1.64967 0.797901 2.15642
1.64764 0.797297 2.15711
1.64606 0.797103 2.15766
1.64525 0.797193 2.15792
1.6451 0.797343 2.15793
1.64532 0.797443 2.15782
1.64564 0.797508 2.15767
1.64591 0.797551 2.15753
1.64606 0.797546 2.15745
1.64606 0.797488 2.1574
1.64594 0.797426 2.15738
1.64581 0.797405 2.15738
1.64574 0.797422 2.1574
1.64575 0.797449 2.15741
1.64578 0.797457 2.15739
1.6458 0.797441 2.15735
1.64581 0.797411 2.1573
1.64583 0.797373 2.15727
1.64584 0.79732 2.15727
1.6458 0.797236 2.15731
1.64562 0.797091 2.15739
