ply
format ascii 1.0
element vertex 1513
property float x
property float y
property float z
element face 0
property list uchar int vertex_index
end_header
2.46782 4.92094 1.95282
2.4677 4.92093 1.95262
2.46764 4.92094 1.95261
2.46766 4.92098 1.95273
2.46775 4.92102 1.95286
2.46782 4.92105 1.95289
2.46784 4.92108 1.9528
2.4678 4.92111 1.95269
2.46776 4.92115 1.95267
2.46777 4.92116 1.95277
2.4678 4.92114 1.95287
2.46781 4.92108 1.95284
2.46779 4.92104 1.95273
2.46779 4.92103 1.95267
2.4678 4.92108 1.95272
2.46777 4.92115 1.95278
2.4677 4.9212 1.95277
2.46762 4.92125 1.95273
2.46761 4.92129 1.95274
2.46766 4.92132 1.95281
2.46773 4.92133 1.95283
2.46778 4.9213 1.95277
2.46783 4.92126 1.95272
2.46789 4.92124 1.95276
2.46793 4.92127 1.95289
2.46795 4.92132 1.953
2.46793 4.92138 1.95303
2.46793 4.92142 1.95302
2.46798 4.92143 1.95302
2.46807 4.92139 1.95306
2.46811 4.92134 1.95311
2.468 4.92131 1.95312
2.46778 4.92133 1.95312
2.4676 4.92139 1.95318
2.46758 4.92141 1.95329
2.4677 4.9214 1.9534
2.46783 4.92136 1.95346
2.46785 4.92135 1.95348
2.46782 4.92136 1.95349
2.46782 4.92136 1.95354
2.46786 4.92131 1.95359
2.46794 4.92121 1.95364
2.46805 4.92108 1.95371
2.46816 4.92094 1.95384
2.46826 4.92084 1.95401
2.4683 4.92078 1.95413
2.46825 4.92075 1.95422
2.4682 4.92072 1.95433
2.46827 4.92061 1.95452
2.46858 4.92039 1.95473
2.46912 4.92008 1.95492
2.46971 4.91976 1.95509
2.47016 4.91945 1.95527
2.47047 4.91911 1.95554
2.471 4.91869 1.95605
2.47248 4.91817 1.957
2.47565 4.91764 1.95851
2.4812 4.91731 1.96063
2.48976 4.91741 1.96363
2.502 4.91809 1.96844
2.51865 4.91933 1.97721
2.54055 4.92116 1.99363
2.56853 4.92372 2.02267
2.6034 4.92738 2.06975
2.64572 4.93259 2.13987
2.6957 4.93978 2.2368
2.75321 4.9492 2.36221
2.81793 4.96093 2.5152
2.88952 4.97489 2.69242
2.96768 4.99099 2.8884
3.05189 5.00912 3.09619
3.14148 5.02922 3.30853
3.23581 5.05131 3.51912
3.33443 5.07547 3.7236
3.43708 5.1018 3.91981
3.54353 5.13044 4.10754
3.65353 5.16146 4.28795
3.7669 5.19489 4.46306
3.88366 5.23074 4.63536
4.00393 5.269 4.80729
4.12784 5.3097 4.98076
4.25544 5.35293 5.15689
4.38672 5.39876 5.33607
4.52157 5.44718 5.51828
4.65988 5.49802 5.70368
4.80142 5.55105 5.89334
4.94594 5.60606 6.09005
5.09324 5.66301 6.29878
5.2432 5.72199 6.52604
5.3957 5.78311 6.77833
5.55037 5.84635 7.06004
5.70618 5.91147 7.37199
5.86093 5.97814 7.71108
6.01118 6.04613 8.07108
6.15265 6.11537 8.44387
6.28072 6.18597 8.82036
6.39105 6.25801 9.19114
6.48037 6.33145 9.54698
6.54705 6.40608 9.87937
6.59141 6.48164 10.1809
6.61546 6.55794 10.4454
6.62249 6.63494 10.6688
6.61666 6.71268 10.8489
6.60281 6.79118 10.9856
6.58598 6.87032 11.0799
6.57067 6.94987 11.1339
6.56003 7.02962 11.1502
6.55511 7.10964 11.1322
6.55437 7.19037 11.0841
6.55362 7.27239 11.0095
6.54652 7.35602 10.9108
6.52556 7.44124 10.7888
6.4833 7.52777 10.6448
6.41316 7.61536 10.4818
6.30972 7.70397 10.3061
6.16898 7.79367 10.1254
5.98901 7.88451 9.94738
5.7703 7.97632 9.77778
5.51564 8.06886 9.62171
5.22987 8.162 9.4855
4.91946 8.25571 9.37774
4.59199 8.35011 9.30838
4.25528 8.44532 9.28661
3.91633 8.54126 9.31897
3.58063 8.63777 9.40866
3.25186 8.73473 9.556
2.93208 8.83214 9.75902
2.62224 8.9301 10.0137
2.32252 9.02869 10.3142
2.03275 9.128 10.6531
1.75257 9.22807 11.0222
1.48142 9.32897 11.413
1.21865 9.43081 11.8175
0.963595 9.53369 12.2285
0.715685 9.63768 12.6396
0.474348 9.74283 13.0451
0.239062 9.84917 13.4398
0.00941703 9.95677 13.8193
-0.214929 10.0656 14.179
-0.434314 10.1757 14.5149
-0.649076 10.2871 14.8228
-0.859539 10.3996 15.0988
-1.06599 10.5133 15.3392
-1.26859 10.6279 15.5406
-1.46729 10.7435 15.6998
-1.66169 10.8597 15.8144
-1.85093 10.9765 15.8827
-2.03343 11.0938 15.9058
-2.20673 11.2119 15.8876
-2.36734 11.331 15.835
-2.51111 11.4515 15.7558
-2.63386 11.5734 15.6574
-2.73205 11.6967 15.5469
-2.80323 11.8214 15.4306
-2.84617 11.9478 15.3155
-2.86095 12.076 15.2083
-2.8492 12.2062 15.1137
-2.81413 12.3384 15.0332
-2.7601 12.4724 14.9652
-2.69173 12.6079 14.9065
-2.6131 12.7447 14.8538
-2.52744 12.8826 14.8048
-2.43697 13.0217 14.7586
-2.3431 13.1618 14.7151
-2.24669 13.303 14.6746
-2.1483 13.4454 14.6373
-2.04818 13.5888 14.6034
-1.94642 13.7333 14.5727
-1.84309 13.8788 14.5448
-1.73831 14.0254 14.5194
-1.63219 14.1728 14.4962
-1.52487 14.321 14.4752
-1.41635 14.4697 14.4569
-1.30657 14.6178 14.4417
-1.19543 14.764 14.4296
-1.08288 14.9059 14.4204
-0.968706 15.0407 14.4139
-0.852582 15.1651 14.41
-0.73418 15.2756 14.4084
-0.613343 15.3687 14.4084
-0.490101 15.4413 14.4083
-0.364551 15.4907 14.4061
-0.236767 15.5148 14.4004
-0.106741 15.5122 14.3908
0.0256602 15.4822 14.3778
0.160658 15.4247 14.3626
0.298421 15.34 14.3454
0.438963 15.2291 14.3263
0.582161 15.0933 14.305
0.727866 14.9345 14.2814
0.876002 14.7547 14.2558
1.02663 14.5566 14.2291
1.17989 14.343 14.2025
1.33594 14.1167 14.1769
1.49477 13.8807 14.153
1.6562 13.6378 14.1314
1.8197 13.3905 14.1134
1.98424 13.1411 14.1003
2.14807 12.8914 14.0931
2.30854 12.6425 14.092
2.4621 12.3953 14.0965
2.60451 12.1502 14.1058
2.73102 11.9074 14.1195
2.83667 11.6673 14.1373
2.91667 11.43 14.1585
2.9669 11.1955 14.181
2.98421 10.9638 14.2025
2.96658 10.7351 14.221
2.91311 10.5095 14.2358
2.82407 10.2875 14.247
2.70097 10.0696 14.255
2.54667 9.85602 14.2593
2.36526 9.64675 14.2594
2.16178 9.44165 14.2558
1.94198 9.24057 14.2507
1.71191 9.04353 14.2478
1.47749 8.85065 14.2499
1.24388 8.66192 14.2575
1.01526 8.47718 14.268
0.795113 8.29618 14.2778
0.586995 8.11877 14.2845
0.395329 7.94491 14.288
0.226027 7.77466 14.2907
0.0866849 7.60817 14.2962
-0.0139273 7.44553 14.3072
-0.0668995 7.28677 14.3249
-0.0643867 7.13177 14.3488
-0.000442987 6.98027 14.3772
0.12855 6.83204 14.4085
0.323533 6.68703 14.4422
0.582165 6.54549 14.4792
0.89804 6.40784 14.5202
1.26053 6.2742 14.5646
1.65589 6.14416 14.6096
2.06928 6.01692 14.6523
2.48629 5.89181 14.6928
2.8929 5.76869 14.7364
3.2747 5.64805 14.7912
3.61679 5.53053 14.8637
3.90469 5.41644 14.9531
4.126 5.30567 15.0526
4.27149 5.19796 15.152
4.33514 5.09309 15.2431
4.31375 4.99092 15.3203
4.20717 4.89129 15.3801
4.01874 4.79388 15.4188
3.75504 4.6983 15.4327
3.42476 4.60442 15.4214
3.03815 4.51251 15.3906
2.60744 4.42307 15.3527
2.14719 4.33653 15.3213
1.67233 4.25299 15.3055
1.19543 4.17225 15.3067
0.725072 4.09404 15.3194
0.265654 4.01838 15.3344
-0.181638 3.94545 15.3426
-0.616815 3.87533 15.3376
-1.03875 3.80796 15.317
-1.44319 3.7434 15.2836
-1.82153 3.68215 15.2449
-2.16061 3.62502 15.2101
-2.44449 3.57252 15.1859
-2.65774 3.52448 15.1744
-2.78872 3.48029 15.1746
-2.83164 3.43947 15.1844
-2.7879 3.40207 15.2019
-2.66619 3.36864 15.2256
-2.48141 3.33974 15.2535
-2.25196 3.31552 15.2828
-1.9959 3.2954 15.3088
-1.7272 3.27815 15.3258
-1.454 3.26262 15.3283
-1.17887 3.24825 15.3139
-0.899833 3.23513 15.2849
-0.611273 3.22369 15.2482
-0.305619 3.21437 15.2138
0.0238132 3.20768 15.1904
0.380256 3.20413 15.1825
0.762323 3.20402 15.1892
1.16453 3.20722 15.2047
1.57966 3.21328 15.221
2.00207 3.22156 15.231
2.42991 3.23165 15.233
2.8656 3.24342 15.2329
3.31521 3.25696 15.2423
3.78597 3.27233 15.2718
4.28229 3.28937 15.325
4.80345 3.3077 15.3971
5.34393 3.32708 15.4776
5.89579 3.34745 15.5541
6.45127 3.3686 15.6157
7.00438 3.38997 15.6567
7.55025 3.41083 15.6796
8.08337 3.43092 15.696
8.59576 3.45076 15.7228
9.0758 3.47127 15.7742
9.50871 3.49282 15.8544
9.87941 3.51484 15.9553
10.1762 3.53624 16.0611
10.3924 3.55591 16.1548
10.5244 3.57305 16.2245
10.57 3.5873 16.2655
10.5288 3.5987 16.2782
10.4034 3.60749 16.2644
10.2001 3.61394 16.225
9.92835 3.61847 16.1617
9.59928 3.62174 16.0808
9.22654 3.62465 15.9938
8.82627 3.62808 15.9144
8.41507 3.63275 15.8517
8.00675 3.63902 15.8071
7.61029 3.64701 15.7743
7.2296 3.65689 15.7433
6.86471 3.66907 15.7044
6.51372 3.6841 15.6515
6.17467 3.70252 15.5828
5.8465 3.7248 15.4997
5.5292 3.7512 15.4047
5.22346 3.78169 15.3005
4.93002 3.81578 15.1907
4.64838 3.85279 15.0822
4.3752 3.89231 14.9875
4.10288 3.93447 14.9221
3.81887 3.97944 14.8986
3.50652 4.02667 14.9194
3.14827 4.07481 14.975
2.73052 4.12222 15.0468
2.24685 4.16735 15.1143
1.6973 4.20918 15.1609
1.08548 4.24751 15.1781
0.417133 4.28315 15.1674
-0.299113 4.31772 15.1399
-1.05064 4.35302 15.1115
-1.82191 4.39037 15.097
-2.59699 4.43027 15.1039
-3.36173 4.47245 15.1309
-4.10449 4.51646 15.1704
-4.81477 4.56251 15.2147
-5.4803 4.61162 15.2618
-6.08466 4.66531 15.3152
-6.60864 4.72485 15.3779
-7.03531 4.79045 15.4478
-7.35481 4.86123 15.5187
-7.56574 4.93605 15.5836
-7.67448 5.01453 15.6382
-7.69403 5.09714 15.6825
-7.64262 5.18454 15.7181
-7.54119 5.27674 15.7462
-7.40961 5.37281 15.7647
-7.26311 5.47137 15.7693
-7.11139 5.57134 15.7562
-6.95992 5.6723 15.7247
-6.8113 5.77443 15.6777
-6.66608 5.87817 15.6197
-6.5234 5.98391 15.5548
-6.38115 6.09171 15.486
-6.23534 6.20159 15.4155
-6.07886 6.31408 15.3475
-5.89987 6.43031 15.2895
-5.68101 6.55159 15.251
-5.40189 6.67868 15.2376
-5.04506 6.81139 15.2481
-4.60124 6.94897 15.2763
-4.0713 7.0908 15.3141
-3.46538 7.23676 15.3545
-2.80048 7.38719 15.3937
-2.09685 7.54222 15.43
-1.37374 7.70107 15.4616
-0.645776 7.86223 15.485
0.0782266 8.02424 15.4951
0.794255 8.18629 15.4874
1.50166 8.34807 15.4598
2.20161 8.50935 15.414
2.89486 8.66989 15.3568
3.57902 8.82981 15.3009
4.2465 8.9899 15.2621
4.88399 9.15087 15.2538
5.47397 9.31238 15.28
5.9986 9.47277 15.3331
6.44448 9.62981 15.3975
6.80407 9.78175 15.4568
7.07362 9.92758 15.4999
7.25126 10.0669 15.5225
7.33725 10.1999 15.525
7.3352 10.327 15.5083
7.25234 10.4488 15.4719
7.09862 10.566 15.4156
6.88573 10.68 15.3427
6.62728 10.7918 15.2621
6.33895 10.9026 15.1849
6.03666 11.0132 15.1195
5.73376 11.1245 15.0681
5.43944 11.2369 15.0273
5.15866 11.351 14.9897
4.89324 11.4668 14.9475
4.64457 11.5843 14.8951
4.41679 11.7043 14.8322
4.21953 11.8279 14.7653
4.06907 11.9564 14.7056
3.98599 12.0907 14.6626
3.98895 12.2309 14.641
4.08871 12.3768 14.6398
4.28529 12.5284 14.6549
4.56817 12.686 14.6805
4.91885 12.8497 14.7106
5.31559 13.019 14.7391
5.7386 13.1922 14.7599
6.1735 13.3669 14.7689
6.61058 13.5414 14.7682
7.04163 13.7148 14.7688
7.45726 13.8872 14.786
7.84533 14.0595 14.832
8.19106 14.2322 14.9091
8.47907 14.405 15.0086
8.69649 14.5772 15.1157
8.83517 14.7479 15.2145
8.89161 14.9161 15.2925
8.86632 15.0811 15.3411
8.76337 15.2426 15.3558
8.5897 15.401 15.3355
8.3547 15.5568 15.2856
8.07058 15.7114 15.2179
7.75261 15.8659 15.1473
7.41739 16.0214 15.0862
7.07986 16.1784 15.0391
6.75083 16.3368 15.0028
6.43611 16.4964 14.9687
6.1371 16.6575 14.9273
5.85246 16.8203 14.8718
5.58004 16.9851 14.7997
5.31819 17.1521 14.7124
5.06617 17.3217 14.6138
4.82395 17.4941 14.5083
4.59187 17.6691 14.3995
4.37028 17.8466 14.2896
4.15934 18.0264 14.1799
3.95898 18.2082 14.0712
3.7688 18.3922 13.9645
3.5882 18.5783 13.8608
3.41654 18.7668 13.7616
3.25333 18.9579 13.6675
3.09828 19.1516 13.5788
2.95109 19.3479 13.495
2.81146 19.5467 13.4157
2.67911 19.7476 13.3416
2.5541 19.9498 13.2751
2.437 20.1513 13.2205
2.32849 20.3481 13.1817
2.22855 20.5335 13.1604
2.13633 20.6992 13.154
2.05092 20.8363 13.157
1.97228 20.9372 13.1643
1.90114 20.9955 13.1735
1.83837 21.0065 13.1841
1.78433 20.9678 13.1948
1.73867 20.8804 13.2023
1.70046 20.7477 13.2022
1.66842 20.5748 13.1925
1.64143 20.3676 13.1748
1.61929 20.1341 13.1542
1.60252 19.8835 13.136
1.59152 19.6245 13.1229
1.58599 19.3641 13.1149
1.58521 19.1066 13.1097
1.58854 18.8549 13.1047
1.59566 18.6103 13.0979
1.60634 18.3738 13.0893
1.62052 18.1457 13.0812
1.6387 17.925 13.0789
1.66207 17.7086 13.0896
1.69145 17.4899 13.1195
1.72623 17.2581 13.171
1.76485 17.0005 13.2397
1.80652 16.7059 13.3164
1.8518 16.3673 13.3913
1.90172 15.9805 13.4572
1.95669 15.5434 13.5101
2.01655 15.0553 13.5485
2.08103 14.5177 13.5725
2.14995 13.9344 13.5839
2.22303 13.3116 13.5849
2.29995 12.6565 13.5789
2.38069 11.977 13.5702
2.46556 11.2812 13.5638
2.5549 10.5769 13.5632
2.6487 9.87098 13.5698
2.74656 9.16859 13.5825
2.84774 8.47315 13.5987
2.95168 7.78661 13.6163
3.05848 7.10967 13.636
3.16907 6.44178 13.662
3.28464 5.78059 13.7001
3.40571 5.12136 13.7546
3.53167 4.45777 13.8245
3.66181 3.78469 13.9024
3.79615 3.10026 13.9792
3.93464 2.40478 14.0496
4.07646 1.69929 14.115
4.22106 0.98673 14.1814
4.36902 0.272849 14.2546
4.52111 -0.435741 14.3349
4.67707 -1.13415 14.4175
4.83597 -1.81942 14.494
4.9973 -2.48903 14.557
5.16102 -3.1396 14.6034
5.32698 -3.76623 14.6364
5.49502 -4.3616 14.6641
5.66566 -4.91602 14.6946
5.8398 -5.41975 14.7313
6.01761 -5.86606 14.7723
6.19828 -6.25233 14.8126
6.38094 -6.57928 14.8473
6.56557 -6.85005 14.874
6.75289 -7.07009 14.892
6.94338 -7.24727 14.9014
7.13676 -7.39113 14.9012
7.33244 -7.51111 14.8891
7.53012 -7.61485 14.8633
7.7299 -7.70785 14.8243
7.93208 -7.79405 14.7755
8.13699 -7.87618 14.7213
8.34491 -7.95565 14.6654
8.55598 -8.03247 14.6088
8.77014 -8.10528 14.5515
8.9871 -8.17133 14.4933
9.20654 -8.22649 14.4366
9.42839 -8.26537 14.3859
9.6531 -8.28186 14.3455
9.88118 -8.27081 14.3175
10.1126 -8.22974 14.3003
10.347 -8.15938 14.2896
10.584 -8.06296 14.2802
10.8243 -7.94501 14.2677
11.0687 -7.81058 14.2501
11.3176 -7.66463 14.2289
11.5692 -7.51155 14.2109
11.8178 -7.35474 14.207
12.054 -7.19642 14.2287
12.264 -7.038 14.2827
12.4319 -6.88049 14.3668
12.5427 -6.72473 14.4711
12.5847 -6.57151 14.5823
12.5509 -6.42161 14.6879
12.4384 -6.27561 14.7785
12.249 -6.13383 14.8468
11.9882 -5.99623 14.8878
11.6643 -5.8624 14.9005
11.2878 -5.73162 14.8907
10.8708 -5.60312 14.8704
10.4278 -5.47643 14.8538
9.97362 -5.35136 14.8509
9.52099 -5.22789 14.8639
9.07854 -5.10599 14.8876
8.65049 -4.98528 14.9128
8.23741 -4.86505 14.9301
7.83796 -4.74449 14.9336
7.45046 -4.62297 14.9217
7.07379 -4.50004 14.8959
6.70753 -4.37547 14.8595
6.35171 -4.24918 14.8156
6.00648 -4.12121 14.7666
5.67182 -3.99164 14.7138
5.3475 -3.86053 14.6579
5.03311 -3.72786 14.5998
4.72824 -3.59362 14.5404
4.43259 -3.45782 14.4811
4.14593 -3.32052 14.4231
3.86807 -3.18185 14.3672
3.59879 -3.04193 14.314
3.33783 -2.90089 14.2637
3.08487 -2.75883 14.2164
2.83968 -2.61583 14.1723
2.60209 -2.47195 14.1317
2.37202 -2.32723 14.0946
2.14944 -2.1817 14.0612
1.93427 -2.03538 14.0312
1.72634 -1.88825 14.0041
1.52528 -1.74026 13.9795
1.33068 -1.59138 13.9572
1.14226 -1.44165 13.9371
0.960198 -1.29133 13.9185
0.785928 -1.14079 13.9007
0.623354 -0.990193 13.8842
0.480396 -0.839239 13.8727
0.370197 -0.687119 13.8742
0.310681 -0.532916 13.8968
0.3211 -0.376281 13.9438
0.417029 -0.217814 14.0118
0.606986 -0.058559 14.0933
0.891441 0.100918 14.1814
1.2632 0.260959 14.272
1.70841 0.422538 14.3639
2.20852 0.586596 14.4562
2.74353 0.753342 14.5468
3.29593 0.922061 14.6303
3.85354 1.09155 14.7005
4.40942 1.26072 14.7533
4.95973 1.42889 14.7912
5.5011 1.59591 14.8242
6.02825 1.7622 14.8661
6.53229 1.92835 14.9288
7.00036 2.09451 15.0165
7.41735 2.26033 15.1243
7.76904 2.4251 15.2399
8.04503 2.58789 15.3488
8.23951 2.74774 15.439
8.35055 2.90399 15.5022
8.37978 3.05643 15.534
8.33225 3.20528 15.5328
8.21565 3.35114 15.5002
8.03992 3.49497 15.4442
7.81782 3.63795 15.3777
7.56502 3.78109 15.3148
7.29788 3.92476 15.2644
7.03026 4.0685 15.227
6.77134 4.21156 15.1966
6.52497 4.35356 15.1653
6.29024 4.49481 15.1288
6.06244 4.63622 15.0887
5.834 4.77896 15.0505
5.59534 4.92389 15.019
5.3363 5.07093 14.9941
5.04844 5.21915 14.9702
4.72715 5.3674 14.9394
4.37182 5.51507 14.8962
3.98493 5.6623 14.8423
3.57217 5.80973 14.7863
3.14261 5.95803 14.7384
2.70675 6.1073 14.7051
2.27373 6.25705 14.6859
1.84973 6.40668 14.6744
1.43778 6.55591 14.6613
1.03863 6.7049 14.6379
0.652243 6.85402 14.5988
0.279286 7.00356 14.5437
-0.0778072 7.15369 14.477
-0.414535 7.30407 14.4064
-0.724944 7.45322 14.3399
-1.00315 7.59776 14.2833
-1.24498 7.73216 14.239
-1.44865 7.84957 14.2054
-1.61431 7.94354 14.178
-1.74315 8.00949 14.1516
-1.83697 8.04518 14.1215
-1.89824 8.05032 14.0854
-1.93025 8.02636 14.043
-1.93697 7.97665 13.996
-1.9228 7.90631 13.9468
-1.89216 7.82154 13.8975
-1.8493 7.72861 13.8497
-1.79803 7.6329 13.8033
-1.74167 7.53843 13.7576
-1.68275 7.44779 13.7121
-1.62257 7.36198 13.6698
-1.56065 7.27991 13.6384
-1.49505 7.19684 13.6295
-1.42437 7.10223 13.654
-1.34973 6.97918 13.7165
-1.2738 6.8085 13.8102
-1.19734 6.57564 13.9199
-1.11824 6.2743 14.0287
-1.03358 5.90461 14.1232
-0.94196 5.46997 14.1936
-0.844308 4.97441 14.2347
-0.743413 4.42184 14.2484
-0.641701 3.81888 14.2467
-0.538893 3.17895 14.2465
-0.432602 2.52071 14.2605
-0.32124 1.86119 14.2909
-0.205643 1.21081 14.3318
-0.0879073 0.573446 14.3729
0.0307216 -0.0507795 14.4038
0.150727 -0.662893 14.4178
0.273475 -1.26386 14.4131
0.400058 -1.85429 14.3922
0.530955 -2.43443 14.3591
0.666309 -3.00424 14.3178
0.806232 -3.56371 14.2708
0.950953 -4.113 14.2192
1.10082 -4.65254 14.1636
1.25593 -5.18286 14.1059
1.41529 -5.70427 14.0509
1.57582 -6.2165 14.0069
1.73164 -6.71871 13.9827
1.87407 -7.21005 13.9833
1.99267 -7.69034 14.0072
2.07753 -8.16035 14.046
2.12204 -8.62152 14.0875
2.1242 -9.07526 14.1208
2.08575 -9.52231 14.1407
2.01147 -9.96249 14.1494
1.90939 -10.3951 14.1546
1.78996 -10.8198 14.1641
1.66369 -11.237 14.1819
1.53894 -11.6475 14.2071
1.42098 -12.0522 14.2344
1.31206 -12.4517 14.2571
1.21213 -12.8463 14.2696
1.12008 -13.2362 14.269
1.03474 -13.6211 14.2547
0.955347 -14.0002 14.2276
0.881495 -14.3719 14.1893
0.813031 -14.7334 14.1428
0.749964 -15.0802 14.0928
0.692518 -15.4064 14.0449
0.641064 -15.7041 14.0042
0.595775 -15.9659 13.9728
0.556349 -16.1854 13.9501
0.522102 -16.3585 13.9336
0.492382 -16.4833 13.9203
0.466985 -16.56 13.9082
0.446134 -16.5904 13.8961
0.430002 -16.5784 13.8839
0.418418 -16.5296 13.8716
0.410996 -16.4509 13.8588
0.407396 -16.3498 13.8442
0.40752 -16.233 13.8263
0.411562 -16.106 13.8044
0.4198 -15.9729 13.779
0.432415 -15.8369 13.7514
0.449506 -15.6999 13.7235
0.471106 -15.5634 13.6968
0.497142 -15.4281 13.672
0.527474 -15.2946 13.6496
0.562007 -15.163 13.6296
0.600799 -15.0334 13.6118
0.644061 -14.9053 13.5958
0.692096 -14.7772 13.5805
0.745147 -14.6465 13.5647
0.803048 -14.5093 13.5482
0.865008 -14.3604 13.5326
0.929989 -14.193 13.5224
0.997674 -13.9988 13.5236
1.06909 -13.7698 13.5417
1.14568 -13.5012 13.5797
1.22754 -13.1948 13.6365
1.31321 -12.8586 13.7067
1.4013 -12.5029 13.7813
1.49169 -12.1366 13.8505
1.58497 -11.7656 13.9078
1.68117 -11.3939 13.9508
1.7794 -11.0244 13.9823
1.87793 -10.6585 14.008
1.97399 -10.2963 14.0346
2.06332 -9.93696 14.0663
2.14023 -9.57988 14.1035
2.19835 -9.22477 14.1434
2.23194 -8.87172 14.1811
2.23683 -8.52099 14.2115
2.21081 -8.17294 14.2311
2.15361 -7.82787 14.2386
2.067 -7.48596 14.2351
1.95463 -7.14713 14.2236
1.82165 -6.81099 14.2076
1.67404 -6.47689 14.1899
1.51791 -6.14407 14.172
1.35897 -5.81197 14.1541
1.20196 -5.48042 14.1355
1.05005 -5.14975 14.1168
0.903894 -4.82047 14.1023
0.760576 -4.49275 14.1019
0.612859 -4.16619 14.1284
0.449255 -3.84023 14.1918
0.255546 -3.51522 14.2932
0.0183351 -3.1927 14.4219
-0.270438 -2.87472 14.5593
-0.612091 -2.56273 14.6871
-1.00355 -2.25708 14.7942
-1.43873 -1.95709 14.8802
-1.90773 -1.66159 14.9526
-2.39725 -1.3696 15.0216
-2.89362 -1.08083 15.094
-3.38576 -0.795369 15.1712
-3.86669 -0.513165 15.2491
-4.33352 -0.233785 15.3206
-4.78614 0.0433454 15.3779
-5.22494 0.318604 15.4155
-5.64868 0.592184 15.4313
-6.05307 0.864376 15.428
-6.42989 1.13563 15.4132
-6.76708 1.40639 15.3959
-7.05082 1.67698 15.3829
-7.26887 1.94755 15.3767
-7.41331 2.21829 15.3763
-7.48186 2.48962 15.3798
-7.47802 2.76232 15.3869
-7.41067 3.0372 15.3981
-7.29292 3.31453 15.4128
-7.13999 3.59386 15.4284
-6.96601 3.87439 15.4398
-6.78173 4.15538 15.4418
-6.59413 4.43642 15.431
-6.40709 4.71725 15.4076
-6.22196 4.99745 15.3759
-6.0381 5.27611 15.3428
-5.85402 5.55099 15.315
-5.66888 5.81777 15.2961
-5.48308 6.07023 15.2852
-5.29739 6.30178 15.2778
-5.11199 6.50689 15.2685
-4.92648 6.68124 15.2539
-4.74033 6.8215 15.233
-4.55304 6.92545 15.2054
-4.36417 6.99238 15.1709
-4.17337 7.0232 15.1287
-3.9805 7.02019 15.0784
-3.78589 6.98674 15.021
-3.59065 6.9272 14.9605
-3.39682 6.84703 14.9038
-3.20748 6.75275 14.8577
-3.02718 6.65086 14.8263
-2.86194 6.54652 14.8095
-2.7185 6.44308 14.8039
-2.60301 6.34242 14.8044
-2.5202 6.24549 14.8063
-2.4733 6.15271 14.8057
-2.46429 6.06418 14.8009
-2.4942 5.9799 14.7923
-2.56322 5.89991 14.7822
-2.67064 5.82404 14.7733
-2.81466 5.75159 14.7664
-2.99229 5.68116 14.7601
-3.1993 5.61088 14.7516
-3.43024 5.53878 14.7399
-3.67872 5.46283 14.7272
-3.93772 5.38081 14.7174
-4.20043 5.29029 14.7135
-4.46112 5.18869 14.7163
-4.71577 5.07385 14.7237
-4.96213 4.94443 14.7315
-5.19932 4.80014 14.7354
-5.42721 4.64165 14.7323
-5.64572 4.47037 14.7215
-5.85439 4.28846 14.7047
-6.05203 4.09877 14.6854
-6.23693 3.90472 14.667
-6.40731 3.70961 14.6511
-6.56141 3.51607 14.6376
-6.6972 3.32582 14.6251
-6.81207 3.14006 14.6128
-6.90252 2.95963 14.6011
-6.96446 2.78521 14.5912
-6.99384 2.61717 14.5836
-6.9872 2.45554 14.5781
-6.94189 2.30018 14.5742
-6.85613 2.15088 14.5715
-6.72919 2.00746 14.5708
-6.56186 1.86989 14.5731
-6.35688 1.73822 14.5795
-6.11909 1.61244 14.5897
-5.85492 1.49232 14.6018
-5.57141 1.37741 14.6127
-5.27493 1.2672 14.6194
-4.9704 1.16112 14.62
-4.66121 1.05867 14.615
-4.34985 0.959418 14.6075
-4.03921 0.863052 14.6033
-3.734 0.769484 14.609
-3.4419 0.678807 14.631
-3.17373 0.59108 14.6726
-2.9425 0.506084 14.733
-2.76192 0.423313 14.8077
-2.64453 0.34215 14.8907
-2.60012 0.262019 14.9754
-2.6342 0.182438 15.055
-2.74723 0.10301 15.1222
-2.93506 0.0235304 15.1705
-3.19044 -0.0558416 15.1974
-3.50377 -0.134515 15.2072
-3.86251 -0.211573 15.2104
-4.25132 -0.286234 15.2183
-4.65372 -0.358445 15.2372
-5.05397 -0.428896 15.2668
-5.43756 -0.498263 15.3021
-5.79034 -0.566426 15.3397
-6.097 -0.632365 15.38
-6.34074 -0.694719 15.4272
-6.50612 -0.752654 15.4834
-6.58357 -0.806366 15.5464
-6.57212 -0.856738 15.6095
-6.47884 -0.90444 15.665
-6.31646 -0.949299 15.7069
-6.10068 -0.990554 15.7326
-5.84751 -1.0277 15.7417
-5.5711 -1.061 15.7345
-5.28227 -1.09121 15.7108
-4.98822 -1.11897 15.6712
-4.69312 -1.14445 15.618
-4.39888 -1.16743 15.5545
-4.10588 -1.18761 15.4844
-3.81377 -1.20476 15.4102
-3.52208 -1.21879 15.3335
-3.23052 -1.22966 15.2553
-2.93918 -1.23733 15.1761
-2.64839 -1.24161 15.0963
-2.3586 -1.24219 15.0167
-2.07008 -1.23868 14.9384
-1.78288 -1.23076 14.8629
-1.4971 -1.2182 14.7917
-1.21302 -1.20096 14.7265
-0.931055 -1.17933 14.6681
-0.651561 -1.15388 14.6174
-0.37466 -1.12541 14.5743
-0.100404 -1.09478 14.5392
0.171042 -1.06277 14.5121
0.439381 -1.03003 14.4931
0.704358 -0.997034 14.482
0.965867 -0.964145 14.4782
1.22404 -0.931685 14.4807
1.47925 -0.899966 14.4878
1.73207 -0.869238 14.4977
1.9831 -0.839638 14.508
2.23291 -0.811172 14.5171
2.48198 -0.783643 14.5233
2.73073 -0.756623 14.5257
2.97951 -0.729538 14.524
3.22855 -0.701866 14.5179
3.47796 -0.673239 14.5077
3.72771 -0.643447 14.4941
3.97764 -0.612444 14.4779
4.22753 -0.580402 14.46
4.47725 -0.547663 14.4414
4.72683 -0.514567 14.423
4.97649 -0.481399 14.4056
5.22656 -0.448392 14.3895
5.47737 -0.415709 14.3751
5.72916 -0.383426 14.3621
5.98218 -0.351512 14.3501
6.23671 -0.319941 14.3391
6.49312 -0.288713 14.329
6.75174 -0.257793 14.3203
7.01278 -0.227065 14.3134
7.27631 -0.196375 14.3089
7.54238 -0.165582 14.3071
7.81109 -0.134541 14.3082
8.08246 -0.103074 14.3121
8.35654 -0.0709534 14.3186
8.63338 -0.0379173 14.3276
8.91302 -0.0036607 14.3393
9.19542 0.0321449 14.3534
9.48045 0.0697473 14.3702
9.76797 0.109293 14.3894
10.058 0.150927 14.4111
10.3504 0.194905 14.4351
10.6452 0.241514 14.4614
10.9419 0.290992 14.4898
11.2405 0.343528 14.5201
11.5406 0.399197 14.5523
11.842 0.45801 14.586
12.1446 0.519955 14.6212
12.4481 0.58495 14.6577
12.7524 0.652937 14.6953
13.0569 0.723984 14.7336
13.361 0.798221 14.7723
13.6641 0.875716 14.8109
13.9656 0.956276 14.8492
14.2651 1.03944 14.8872
14.5624 1.12464 14.925
14.8575 1.21141 14.963
15.1504 1.29938 15.0011
15.4413 1.38834 15.0391
15.7299 1.47821 15.0761
16.016 1.56875 15.1117
16.2993 1.65916 15.146
16.5795 1.74784 15.1815
16.857 1.83279 15.2231
17.1312 1.91247 15.2776
17.3991 1.98652 15.352
17.6536 2.05552 15.4506
17.8846 2.12061 15.5731
18.0805 2.18323 15.7143
18.23 2.24504 15.8667
18.3232 2.30762 16.0218
18.3534 2.37209 16.1712
18.318 2.43888 16.3061
18.2189 2.50801 16.4195
18.0615 2.5798 16.5088
17.8542 2.65542 16.5781
17.6081 2.73632 16.6365
17.3366 2.8227 16.6936
17.0535 2.91284 16.7551
16.7707 3.00402 16.8205
16.4968 3.09422 16.8849
16.2366 3.18274 16.9415
15.9915 3.26984 16.9856
15.7604 3.35623 17.0152
15.5412 3.4429 17.0306
15.3319 3.53096 17.0337
15.1311 3.62132 17.0264
14.9378 3.71456 17.011
14.7517 3.8108 16.989
14.5728 3.9098 16.9619
14.4015 4.011 16.9311
14.2388 4.11371 16.8983
14.0859 4.21724 16.8658
13.9437 4.32109 16.836
13.8125 4.42499 16.8111
13.6912 4.52898 16.7922
13.5783 4.63336 16.7785
13.4722 4.73865 16.7686
13.3718 4.84538 16.7604
13.2766 4.95387 16.752
13.1867 5.06418 16.7422
13.1023 5.1762 16.7307
13.0239 5.28977 16.7175
12.9519 5.40476 16.7028
12.8868 5.52109 16.6869
12.8289 5.63871 16.67
12.7781 5.75764 16.6531
12.7336 5.87793 16.6386
12.6933 5.99978 16.6308
12.6538 6.12341 16.6348
12.6095 6.24895 16.6544
12.553 6.37613 16.6896
12.476 6.50432 16.7357
12.3706 6.63276 16.7853
12.2313 6.76084 16.8308
12.0548 6.88815 16.867
11.8404 7.01459 16.8914
11.5897 7.14028 16.9039
11.3067 7.26547 16.9062
10.9974 7.39043 16.9019
10.6691 7.51551 16.8963
10.3294 7.641 16.8946
9.98555 7.76711 16.8993
9.64299 7.8938 16.9085
9.30553 8.02087 16.916
8.97505 8.1481 16.9136
8.65198 8.2754 16.8942
8.33604 8.40276 16.8532
8.02678 8.53019 16.7903
7.72401 8.65774 16.7094
7.42788 8.78545 16.6174
7.13887 8.91341 16.5233
6.85751 9.04172 16.4352
6.5842 9.17055 16.3594
6.31902 9.29991 16.2983
6.06194 9.42955 16.2514
5.8129 9.55876 16.2159
5.57184 9.68619 16.1888
5.33869 9.80955 16.1685
5.1132 9.92542 16.1552
4.89512 10.0292 16.1506
4.68426 10.1156 16.1572
4.4806 10.1791 16.1768
4.2841 10.2146 16.2093
4.09452 10.2184 16.252
3.91147 10.1878 16.2999
3.73447 10.1221 16.3469
3.56304 10.0216 16.3867
3.39676 9.88805 16.4138
3.2353 9.72375 16.4233
3.0785 9.5316 16.4116
2.92635 9.31442 16.3757
2.77894 9.07462 16.3144
2.63627 8.81397 16.2279
2.49823 8.53365 16.1187
2.3647 8.23454 15.9909
2.23576 7.91749 15.8505
2.11169 7.58373 15.7045
1.99292 7.23509 15.5593
1.8797 6.87402 15.4195
1.77201 6.50344 15.2875
1.6697 6.12646 15.1657
1.57271 5.7463 15.0573
1.4812 5.36604 14.9668
1.39553 4.98833 14.899
1.31604 4.61518 14.8575
1.2428 4.2478 14.8425
1.17563 3.88671 14.8514
1.11423 3.53195 14.8784
1.05825 3.18336 14.916
1.00733 2.84075 14.956
0.961186 2.50393 14.9904
0.919552 2.17273 15.0115
0.882212 1.84696 15.0123
0.848957 1.52641 14.9867
0.819554 1.21077 14.9293
0.793783 0.89969 14.8361
0.771535 0.592857 14.705
0.752865 0.290014 14.5361
0.737936 -0.00899051 14.3322
0.726959 -0.304182 14.0983
0.72014 -0.595379 13.8412
0.717699 -0.882047 13.5686
0.719997 -1.16308 13.2897
0.727553 -1.43658 13.0142
0.74092 -1.69986 12.7517
0.760621 -1.9495 12.5115
0.787111 -2.18149 12.3019
0.820803 -2.39132 12.1303
0.86212 -2.57417 12.0023
0.911417 -2.72553 11.9206
0.968769 -2.84203 11.8838
1.03392 -2.9221 11.886
1.10623 -2.96611 11.9181
1.18495 -2.97606 11.9693
1.26942 -2.95488 12.0289
1.3591 -2.90585 12.0881
1.45349 -2.83206 12.1406
1.55211 -2.73628 12.1828
1.65482 -2.62104 12.2142
1.76171 -2.48892 12.2356
1.87282 -2.34279 12.2487
1.988 -2.18581 12.2543
2.10709 -2.02113 12.2531
2.23008 -1.85156 12.246
2.35711 -1.67942 12.2345
2.48841 -1.50652 12.2208
2.62414 -1.3342 12.2079
2.76406 -1.16343 12.1996
2.90688 -0.99476 12.2005
3.04961 -0.828416 12.2148
3.18711 -0.664383 12.2445
3.31231 -0.502544 12.2881
3.41727 -0.342739 12.3406
3.4946 -0.184843 12.3957
3.53869 -0.0288808 12.4466
3.54643 0.125006 12.4878
3.51739 0.27672 12.5151
3.45363 0.426321 12.5266
3.35928 0.574019 12.524
3.24019 0.720079 12.5118
3.10337 0.864719 12.496
2.9561 1.00806 12.4816
2.80486 1.15014 12.4705
2.65453 1.29099 12.4622
2.50813 1.4308 12.4545
2.36709 1.57 12.4451
2.23205 1.70907 12.4332
2.10345 1.84839 12.4192
1.98165 1.98816 12.4039
1.86682 2.12844 12.3881
1.759 2.26923 12.3722
1.65807 2.41052 12.3563
1.56384 2.55241 12.3404
1.47609 2.69506 12.3246
1.39461 2.83866 12.3092
1.31922 2.98336 12.2944
1.24978 3.12925 12.2805
1.1862 3.2764 12.2675
1.12838 3.42484 12.2555
1.07624 3.5746 12.2446
1.02976 3.72574 12.235
0.988949 3.87829 12.2265
0.953778 4.03224 12.2193
0.924111 4.18751 12.213
0.899791 4.34394 12.2075
0.880667 4.50135 12.2025
0.86652 4.65956 12.1979
0.857088 4.81843 12.1939
0.852107 4.97792 12.1906
0.851339 5.13804 12.1876
0.854594 5.29885 12.1837
0.861736 5.46041 12.1763
0.872642 5.62282 12.1615
0.88711 5.78624 12.1351
0.904811 5.95088 12.0939
0.925347 6.11685 12.0377
0.948549 6.28386 11.9714
0.974981 6.45054 11.9054
1.00597 6.61332 11.8544
1.04249 6.76505 11.8317
1.08383 6.89468 11.8445
1.12819 6.98967 11.8898
1.17467 7.03962 11.9569
1.22379 7.03791 12.0327
1.27636 6.98077 12.1066
1.33265 6.86646 12.1708
1.39242 6.69526 12.2202
1.45534 6.46971 12.2517
1.52096 6.19411 12.2644
1.5887 5.87398 12.2607
1.65834 5.51592 12.2467
1.73061 5.12794 12.2303
1.80699 4.71908 12.2183
1.88847 4.29784 12.2133
1.97495 3.87076 12.2141
2.06581 3.44224 12.2176
2.16057 3.01512 12.2213
2.2592 2.59138 12.2244
2.36184 2.17252 12.2273
2.46865 1.75963 12.2307
2.5797 1.35343 12.2353
2.69487 0.954322 12.241
2.81366 0.562448 12.248
2.93503 0.177801 12.257
3.05718 -0.199744 12.2692
3.17732 -0.570342 12.2856
3.29159 -0.934111 12.3073
3.39524 -1.29108 12.3342
3.4831 -1.64123 12.3649
3.55066 -1.98473 12.3963
3.59497 -2.32196 12.4243
3.61529 -2.65344 12.445
3.61312 -2.97964 12.4569
3.59177 -3.3008 12.4617
3.55602 -3.61698 12.4635
3.51131 -3.92826 12.4665
3.46285 -4.23482 12.4727
3.4149 -4.53696 12.4813
3.37047 -4.83498 12.4898
3.33138 -5.12906 12.4958
3.29858 -5.41931 12.4976
3.27243 -5.70585 12.4958
3.25247 -5.98891 12.4929
3.23674 -6.26872 12.4931
3.22087 -6.54533 12.5013
3.19758 -6.81841 12.5226
3.15694 -7.08719 12.5599
3.08766 -7.35072 12.6134
2.97922 -7.60843 12.6788
2.8246 -7.86053 12.7475
2.62172 -8.10781 12.8096
2.37268 -8.35088 12.859
2.08266 -8.58974 12.8965
1.76026 -8.8239 12.9299
1.41731 -9.053 12.9686
1.06643 -9.27726 13.0183
0.718069 -9.49738 13.0787
0.378933 -9.71394 13.1439
0.051877 -9.92671 13.2052
-0.263246 -10.1345 13.2546
-0.568073 -10.3351 13.2872
-0.864297 -10.5262 13.3018
-1.15269 -10.7046 13.301
-1.43268 -10.8667 13.29
-1.7024 -11.0079 13.2753
-1.95949 -11.1239 13.2628
-2.20214 -11.2107 13.2555
-2.42985 -11.2662 13.2534
-2.64347 -11.2897 13.2537
-2.84457 -11.2818 13.2535
-3.03481 -11.2435 13.2511
-3.21539 -11.1769 13.2465
-3.38699 -11.0852 13.2399
-3.54964 -10.9728 13.2304
-3.70237 -10.8448 13.216
-3.84275 -10.706 13.195
-3.96702 -10.5603 13.1681
-4.07076 -10.4109 13.139
-4.14988 -10.2602 13.1137
-4.20183 -10.1095 13.098
-4.22672 -9.95927 13.0951
-4.22776 -9.80982 13.1034
-4.21043 -9.66133 13.1178
-4.18065 -9.51413 13.1315
-4.14304 -9.36851 13.139
-4.10015 -9.22475 13.1386
-4.05246 -9.08301 13.1323
-3.99895 -8.94322 13.125
-3.93804 -8.80521 13.1214
-3.86885 -8.66876 13.1232
-3.79163 -8.53377 13.129
-3.70756 -8.40013 13.1355
-3.61821 -8.26768 13.1399
-3.52507 -8.13621 13.141
-3.42919 -8.00555 13.1392
-3.33112 -7.87551 13.1356
-3.23103 -7.74591 13.1308
-3.12888 -7.61662 13.1238
-3.02461 -7.48758 13.1132
-2.91821 -7.35881 13.0965
-2.80971 -7.23035 13.072
-2.69918 -7.10221 13.0383
-2.58665 -6.97438 12.9946
-2.47212 -6.84682 12.94
-2.35556 -6.71948 12.8726
-2.23691 -6.59238 12.7899
-2.11616 -6.46554 12.6882
-1.99333 -6.33903 12.5629
-1.86853 -6.21296 12.4095
-1.74191 -6.08745 12.2238
-1.61358 -5.96255 12.0033
-1.48353 -5.83826 11.748
-1.35154 -5.71443 11.4606
-1.21707 -5.59082 11.1467
-1.07936 -5.46712 10.8136
-0.93759 -5.34307 10.4692
-0.791005 -5.21854 10.1221
-0.639166 -5.09354 9.78082
-0.482305 -4.96797 9.45524
-0.321768 -4.84147 9.15625
-0.160424 -4.71342 8.89426
-0.00278358 -4.58341 8.67613
0.145705 -4.45155 8.50303
0.280277 -4.31833 8.37191
0.398228 -4.18429 8.27971
0.499106 -4.04979 8.22679
0.584236 -3.91483 8.21642
0.655937 -3.77912 8.25065
0.716305 -3.6425 8.32601
0.76637 -3.50521 8.43212
0.806368 -3.36775 8.55417
0.836712 -3.23053 8.67737
0.858651 -3.09386 8.79076
0.874422 -2.9579 8.88874
0.887161 -2.8227 8.97005
0.900336 -2.68817 9.03554
0.916968 -2.55412 9.08631
0.939146 -2.42035 9.1229
0.967854 -2.28661 9.14549
1.00307 -2.15263 9.15444
1.04423 -2.01813 9.15109
1.09081 -1.88295 9.13794
1.14259 -1.74698 9.1183
1.1995 -1.61014 9.09522
1.26154 -1.47234 9.07022
1.32863 -1.3336 9.04258
1.40059 -1.19404 9.00937
1.47713 -1.05391 8.96663
1.55776 -0.913439 8.91108
1.64184 -0.772804 8.84187
1.72839 -0.632055 8.76139
1.81579 -0.491087 8.67502
1.90152 -0.349662 8.59005
1.98252 -0.207448 8.51419
2.05558 -0.0640793 8.45411
2.11804 0.0807416 8.41399
2.16823 0.227079 8.39445
2.2057 0.374716 8.3924
2.23131 0.523271 8.40244
2.24707 0.672362 8.41901
2.25592 0.821722 8.43798
2.26121 0.971203 8.45678
2.2661 1.1207 8.47373
2.27305 1.27012 8.48739
2.28369 1.41937 8.49658
2.2988 1.56847 8.50056
2.31864 1.71751 8.4993
2.34314 1.8667 8.4933
2.37205 2.01625 8.48297
2.40511 2.16628 8.46818
2.44211 2.31682 8.44825
2.48297 2.4678 8.42241
2.52773 2.61922 8.39074
2.57651 2.77115 8.35462
2.62946 2.92376 8.31655
2.68665 3.07721 8.27918
2.74811 3.23158 8.24443
2.81382 3.38681 8.21271
2.8837 3.54267 8.18289
2.95751 3.69889 8.15274
3.03491 3.85522 8.11965
3.11558 4.0115 8.08131
3.19933 4.16775 8.03617
3.28612 4.32403 7.98346
3.37603 4.48043 7.92284
3.4693 4.63694 7.85436
3.56632 4.79343 7.77913
3.66745 4.94981 7.70048
3.77243 5.10612 7.62516
3.87984 5.26262 7.56349
3.98669 5.41957 7.52714
4.08837 5.57633 7.52512
4.17876 5.73003 7.55979
4.25149 5.8751 7.62548
4.30211 6.0043 7.71044
4.32964 6.11075 7.80145
4.33654 6.18903 7.88789
4.32769 6.23513 7.96305
4.30896 6.24639 8.0231
4.28591 6.22165 8.06613
4.26296 6.1616 8.09234
4.24317 6.06937 8.1048
4.2285 5.95091 8.10896
4.22008 5.81434 8.1104
4.21829 5.66803 8.11222
4.22256 5.51855 8.11378
4.23183 5.36994 8.11104
4.24512 5.22411 8.09815
4.26196 5.08165 8.06932
4.28237 4.94257 8.02037
4.3066 4.80677 7.94986
4.33489 4.6743 7.85962
4.36754 4.5454 7.75443
4.40498 4.42037 7.64107
4.44763 4.29939 7.52695
4.49562 4.18248 7.41904
4.54836 4.06954 7.32352
4.60405 3.96049 7.24581
4.6593 3.85546 7.19026
4.70937 3.75469 7.15911
4.74882 3.65836 7.15127
4.77255 3.56633 7.16197
4.77704 3.47819 7.1838
4.76095 3.39338 7.2089
4.7251 3.31146 7.23113
4.67224 3.23218 7.24754
4.6066 3.15547 7.25847
4.53312 3.08138 7.26614
4.45654 3.00995 7.27276
4.38073 2.94108 7.27917
4.3083 2.87463 7.28449
4.24071 2.81044 7.28653
4.17849 2.74843 7.28261
4.12165 2.68858 7.27006
4.07008 2.63085 7.24666
4.02368 2.57513 7.21077
3.98246 2.52134 7.16149
3.94653 2.46938 7.09852
3.91594 2.41913 7.02207
3.89056 2.3705 6.93266
3.87015 2.32343 6.83132
3.85451 2.27793 6.71994
3.84362 2.2341 6.60132
3.83761 2.19197 6.47886
3.8366 2.15157 6.35606
3.84058 2.11288 6.2363
3.84955 2.07597 6.12305
3.86357 2.04094 6.01978
3.88279 2.00795 5.9293
3.90727 1.97706 5.85244
3.93687 1.9482 5.7871
3.97128 1.92112 5.72834
4.01012 1.89551 5.66931
4.05299 1.87105 5.60258
4.09952 1.84746 5.52111
4.14935 1.8245 5.4188
4.20201 1.80191 5.29057
4.25694 1.77947 5.13235
4.31363 1.757 4.94138
4.37178 1.73457 4.71674
4.43161 1.71264 4.45965
4.494 1.69205 4.17327
4.56067 1.67363 3.86193
4.63345 1.65769 3.53065
4.7131 1.64351 3.18679
4.7976 1.6295 2.84429
4.88075 1.61397 2.52906
4.95239 1.59651 2.27935
5.00136 1.57851 2.13384
5.01961 1.56105 2.10756
5.00485 1.54253 2.17483
4.96148 1.52087 2.28226
4.89799 1.49593 2.37878
4.822 1.46881 2.43591
4.73894 1.44085 2.45046
4.65388 1.41337 2.43601
4.57187 1.3874 2.41246
4.49705 1.36334 2.39769
4.43218 1.34095 2.40252
4.3786 1.31999 2.42998
4.3366 1.30066 2.47696
4.30625 1.28363 2.53536
4.2877 1.26949 2.59195
4.28075 1.2581 2.62837
4.28408 1.24806 2.62391
4.29398 1.23733 2.56353
4.30263 1.22484 2.44947
4.29768 1.2122 2.30879
4.26525 1.20401 2.18591
4.19584 1.20438 2.1161
4.08882 1.21231 2.09856
3.9526 1.22313 2.10326
3.79951 1.23322 2.10136
3.63971 1.24158 2.0839
3.48008 1.24925 2.05969
3.32574 1.25745 2.04301
3.18024 1.26619 2.04379
3.04528 1.27441 2.06429
2.92106 1.28097 2.10026
2.80705 1.28536 2.14495
2.70259 1.28769 2.19278
2.60711 1.28838 2.24065
2.52026 1.28788 2.28701
2.4418 1.28653 2.33091
2.3715 1.28447 2.37176
2.30904 1.28169 2.40958
2.25397 1.27806 2.44496
2.20587 1.27345 2.47908
2.16455 1.26797 2.51344
2.13031 1.26225 2.54916
2.10407 1.25745 2.58523
2.08686 1.25499 2.61582
2.07893 1.25557 2.62858
2.07872 1.25819 2.60656
2.08227 1.25994 2.53594
2.08371 1.25685 2.41778
2.07718 1.2458 2.27635
2.05954 1.22668 2.1529
2.03178 1.20213 2.08097
1.99847 1.17537 2.06066
1.96778 1.15022 2.06277
1.94903 1.13097 2.05741
1.94722 1.11983 2.03459
1.96044 1.11631 2.00368
1.98197 1.11821 1.97847
2.00367 1.12235 1.96459
2.0194 1.12607 1.95984
2.02724 1.12817 1.95954
2.02891 1.12865 1.96034
2.02755 1.12808 1.96101
2.0256 1.12719 1.96136
2.02414 1.12656 1.96142
2.02338 1.12637 1.96129
2.0232 1.12644 1.96113
2.02338 1.12659 1.96101
2.02367 1.12673 1.96092
2.02394 1.12681 1.96085
2.02412 1.1268 1.96083
2.02414 1.12675 1.96083
2.02398 1.12673 1.96079
2.02379 1.12675 1.96077
2.02372 1.12679 1.9608
2.02376 1.1268 1.96084
2.02382 1.12677 1.96082
2.02385 1.12673 1.96075
2.02387 1.12669 1.9607
2.02391 1.12663 1.96071
2.02398 1.12656 1.96078
2.02399 1.12647 1.9609
2.0238 1.1264 1.9611
