ply
format ascii 1.0
element vertex 1510
property float x
property float y
property float z
element face 0
property list uchar int vertex_index
end_header
2.45901 4.93315 1.8567
2.45901 4.93315 1.8567
2.45901 4.93315 1.8567
2.46191 4.91774 1.88522
2.46191 4.91774 1.88522
2.46191 4.91774 1.88522
2.45901 4.93315 1.8567
2.45901 4.93315 1.8567
2.45901 4.93315 1.8567
2.45901 4.93315 1.8567
2.45901 4.93315 1.8567
2.45901 4.93315 1.8567
2.45901 4.93315 1.8567
2.45901 4.93315 1.8567
2.45901 4.93315 1.8567
2.45901 4.93315 1.8567
2.45901 4.93315 1.8567
2.45901 4.93315 1.8567
2.45901 4.93315 1.8567
2.45901 4.93315 1.8567
2.45901 4.93315 1.8567
2.45901 4.93315 1.8567
2.45901 4.93315 1.8567
2.45901 4.93315 1.8567
2.45901 4.93315 1.8567
2.45901 4.93315 1.8567
2.45901 4.93315 1.8567
2.45901 4.93315 1.8567
2.45901 4.93315 1.8567
2.45901 4.93315 1.8567
2.45901 4.93315 1.8567
2.45901 4.93315 1.8567
2.45901 4.93315 1.8567
2.45901 4.93315 1.8567
2.45901 4.93315 1.8567
2.45901 4.93315 1.8567
2.45901 4.93315 1.8567
2.45901 4.93315 1.8567
2.45901 4.93315 1.8567
2.45901 4.93315 1.8567
2.45901 4.93315 1.8567
2.45901 4.93315 1.8567
2.45901 4.93315 1.8567
2.45901 4.93315 1.8567
2.45901 4.93315 1.8567
2.45901 4.93315 1.8567
2.45901 4.93315 1.8567
2.45901 4.93315 1.8567
2.45901 4.93315 1.8567
2.45901 4.93315 1.8567
2.45901 4.93315 1.8567
2.45901 4.93315 1.8567
2.45901 4.93315 1.8567
2.45901 4.93315 1.8567
2.45901 4.93315 1.8567
2.48131 4.8705 1.91003
2.48131 4.8705 1.91003
2.47981 4.8978 1.89836
2.47803 4.91135 1.872
2.50629 4.8887 1.93736
2.54086 4.90421 1.86207
2.54829 4.91958 1.91095
2.58316 4.89206 1.95201
2.60889 4.91231 1.99276
2.66022 4.94845 2.10192
2.73125 4.94991 2.24419
2.78025 4.94006 2.38988
2.87856 4.96745 2.61129
2.94826 4.96474 2.75366
3.04657 5.01188 3.04089
3.1289 5.03247 3.2017
3.20875 5.02281 3.40891
3.33943 5.0751 3.62959
3.4398 5.10339 3.79483
3.54761 5.07513 4.04695
3.61368 5.10997 4.21706
3.72404 5.1798 4.34215
3.845 5.22064 4.53633
1.27344 -3.40235 4.76287
4.12762 5.26145 4.91069
4.18635 5.33172 5.06199
4.34105 5.34342 5.24184
4.48154 5.38165 5.39227
4.5821 5.44458 5.63418
4.7775 5.50324 5.75721
4.95078 5.60435 6.0792
5.05149 5.63332 6.18313
5.24144 5.69745 6.44657
5.39186 5.73933 6.69851
5.50341 5.74537 6.97777
5.68198 5.86102 7.33209
5.88072 5.93743 7.64581
6.00219 6.05668 7.98274
6.15497 6.14269 8.33418
6.31913 6.18623 8.70198
6.38178 6.1678 9.0542
6.51494 6.31057 9.39128
6.61127 6.4002 9.72437
6.63798 6.4693 10.106
6.69988 6.53841 10.3252
6.65666 6.56701 10.5724
6.70603 6.72004 10.8084
6.63042 6.7549 10.9245
6.64151 6.89357 11.101
6.60256 6.89566 11.1187
6.61507 7.04979 11.1175
6.60048 7.11261 11.1145
6.58648 7.13198 11.1024
6.63192 7.28991 11.0297
6.60554 7.31803 10.9603
6.60755 7.48074 10.8234
6.59379 7.58541 10.6645
6.48395 7.68253 10.4927
6.39791 7.7087 10.2681
6.27239 7.72095 10.1213
6.10568 7.8807 9.92223
5.90149 8.00856 9.74133
5.64674 8.10659 9.61963
5.33861 8.14519 9.48172
5.02506 8.26801 9.39925
4.69768 8.32737 9.34538
4.37248 8.4053 9.25052
4.02788 8.49967 9.3373
3.67539 8.58752 9.3717
3.34566 8.27426 9.62137
3.00209 8.81259 9.76025
2.6952 8.91167 9.92679
2.3998 9.00769 10.2175
2.07348 9.08764 10.5273
1.81192 9.15019 10.9468
1.53687 9.33715 11.2808
1.32923 9.39804 11.7002
0.984392 9.43232 12.105
0.758847 9.61868 12.5448
0.54537 9.71223 12.932
0.241947 9.79887 13.3718
0.0486676 9.9656 13.7687
-0.158711 10.0363 14.0676
-0.354517 10.1271 14.4684
-0.607602 10.2562 14.707
-0.813245 10.3631 14.9871
-1.05073 10.4845 15.2857
-1.2295 10.6024 15.4642
-1.42102 10.6762 15.6361
-1.6301 10.8883 15.8277
-1.85689 11.0047 15.8389
-2.02547 11.0511 15.8769
-2.20247 11.1993 15.9238
-2.38832 11.303 15.8975
-2.53101 11.453 15.7663
-2.66397 11.5626 15.6725
-2.74667 11.6344 15.6035
-2.85835 11.794 15.4557
-2.89702 11.9395 15.3218
-2.89199 12.029 15.2983
-2.90218 12.1646 15.1257
-2.89337 12.38 15.0542
-2.85943 12.4961 14.9899
-2.75996 12.5888 14.876
-2.65986 12.701 14.8797
-2.59332 12.8834 14.8273
-2.46929 12.9605 14.8168
-2.38055 13.1383 14.7188
-2.33926 13.3076 14.7011
-2.24527 13.503 14.646
-2.10134 13.505 14.6369
-1.96731 13.6967 14.6091
-1.91044 13.8436 14.5753
-1.82198 14.0588 14.537
-1.68407 14.1964 14.5239
-1.55308 14.3169 14.4876
-1.48928 14.4981 14.4401
-1.34461 14.6369 14.4481
-1.32274 14.8841 14.4552
-1.1516 14.9692 14.4065
-1.00213 15.0875 14.4354
-0.900229 15.2046 14.41
-0.788978 15.389 14.4312
-0.678364 15.4687 14.437
-0.554841 15.4991 14.4026
-0.417213 15.5882 14.4168
-0.269175 15.6167 14.4082
-0.150843 15.6363 14.3573
-0.0127769 15.5999 14.3635
0.122313 15.5808 14.3593
0.27956 15.4845 14.3499
0.395206 15.3377 14.2959
0.547629 15.2157 14.2985
0.684433 15.0623 14.2919
0.824864 14.9198 14.273
0.990239 14.7198 14.2326
1.13099 14.4693 14.2374
1.32045 14.2599 14.162
1.44174 14.0059 14.1591
1.59908 13.7405 14.1165
1.78017 13.4645 14.1398
1.93459 13.1959 14.109
2.08416 12.9457 14.1155
2.30515 12.715 14.0587
2.41261 12.4301 14.1362
2.55821 12.1543 14.1192
2.7314 11.9474 14.1082
2.82367 11.6611 14.1579
2.93718 11.4633 14.1325
3.05233 11.3624 14.1428
3.02779 11.048 14.2083
3.0456 10.8611 14.2165
2.97436 10.5735 14.2099
2.87631 10.3761 14.2553
2.75409 10.1535 14.2773
2.58874 9.91779 14.3003
2.43983 9.72212 14.2377
2.27442 9.53236 14.2785
1.9932 9.22982 14.252
1.77327 9.04457 14.2528
1.52832 8.83774 14.281
1.30334 8.69017 14.2726
1.04981 8.53972 14.2893
0.800641 8.31355 14.2256
0.618328 8.10802 14.2693
0.43615 7.96913 14.3153
0.250582 7.80705 14.3046
0.0965836 7.62189 14.303
-0.0112836 7.47447 14.3318
-0.046456 7.32196 14.3077
-0.105554 7.11997 14.303
-0.00943333 7.01117 14.3299
0.112602 6.87339 14.4033
0.23007 6.68585 14.3893
0.508601 6.52061 14.4389
0.774108 6.45406 14.4423
1.12136 6.29102 14.5318
1.55691 6.09745 14.6301
1.95565 6.05274 14.6342
2.38945 5.89892 14.6812
2.86639 5.84622 14.698
3.19494 5.61323 14.7821
3.55307 5.51309 14.7905
3.88252 5.44036 14.8769
4.12528 5.35832 14.9528
4.31421 5.25712 15.0315
4.42004 5.1762 15.18
4.4093 5.07855 15.2202
4.31324 4.98442 15.3518
4.12057 4.83412 15.3895
3.88042 4.70729 15.3528
3.51209 4.56364 15.3641
3.16931 4.51969 15.3804
2.75846 4.40793 15.3309
2.24919 4.33905 15.3809
1.78271 4.26354 15.2884
1.30335 4.11795 15.2956
0.872261 4.10592 15.3311
0.372236 4.0336 15.3516
-0.0919513 3.96453 15.3993
-0.520334 3.81385 15.3213
-0.915534 3.83021 15.2983
-1.36863 3.74436 15.2638
-1.73327 3.67882 15.2115
-2.09574 3.62704 15.201
-2.45983 3.58543 15.1224
-2.6547 3.50649 15.0995
-2.83845 3.54292 15.0959
-2.89231 3.47648 15.1489
-2.8255 3.4824 15.1696
-2.7543 3.36206 15.1898
-2.56063 3.36201 15.2363
-2.36368 3.30748 15.2482
-2.05352 3.27125 15.3149
-1.80606 3.28358 15.3661
-1.51267 3.31927 15.3505
-1.24373 3.17584 15.3512
-0.990606 3.18626 15.3282
-0.702083 3.21563 15.2325
-0.413421 3.18612 15.2132
-0.0597651 3.15997 15.1829
0.275287 3.18485 15.2021
0.660199 3.2206 15.173
1.01228 3.19553 15.2166
1.49491 3.15218 15.2215
1.89968 3.18448 15.1902
2.33688 3.20927 15.1841
2.75109 3.23524 15.2067
3.19377 3.22081 15.1867
3.65496 3.25567 15.2548
4.15492 3.28497 15.3335
4.67071 3.35376 15.418
5.24552 3.29844 15.4028
5.75034 3.24509 15.5413
6.29578 3.33358 15.5993
6.90665 3.40807 15.7174
7.42798 3.41356 15.631
8.01633 3.41737 15.7259
8.51729 3.45501 15.6687
9.00902 3.56754 15.7549
9.47467 3.53633 15.8416
9.8949 3.57615 15.8727
10.2415 3.60424 15.9967
10.4501 3.65636 16.0551
10.5673 3.61216 16.1589
10.7002 3.71056 16.2038
10.603 3.6171 16.22
10.5114 3.67268 16.2325
10.3556 3.68689 16.2117
10.0658 3.6876 16.1566
9.79214 3.67519 16.0372
9.32211 3.56976 16.0056
8.94888 3.60156 15.9046
8.55744 3.59783 15.8183
8.10431 3.61927 15.7743
7.7366 3.63964 15.8138
7.30533 3.57184 15.8136
6.94948 3.67302 15.6829
6.56405 3.64668 15.6376
6.28207 3.7123 15.5328
5.94078 3.69902 15.5814
5.59823 3.77079 15.4063
5.30924 3.75526 15.3243
4.99098 3.8054 15.1522
4.73424 3.79335 15.06
4.44 3.86175 14.9659
4.17339 3.88478 14.899
3.8794 3.9325 14.8288
3.61884 4.01189 14.9386
3.26788 4.11223 14.9075
2.86068 4.06588 14.9924
2.43276 4.1548 15.0176
1.89328 4.2537 15.1451
1.24793 4.26254 15.1702
0.592939 4.32149 15.1769
-0.0757139 4.29883 15.1002
-0.870395 4.25885 15.1012
-1.62055 4.40431 15.094
-2.41389 4.41966 15.1334
-3.19493 4.39714 15.1704
-3.97352 4.49253 15.1776
-4.67364 4.52906 15.195
-5.42528 4.66769 15.2027
-5.99316 4.73074 15.2877
-6.59711 4.78364 15.2914
-7.04153 4.86492 15.3467
-7.36431 4.9186 15.4334
-7.62712 4.96366 15.5128
-7.72301 5.0605 15.5808
-7.78133 5.14773 15.6393
-7.78802 5.25373 15.6632
-7.64877 5.2954 15.7499
-7.52805 5.3799 15.7873
-7.3336 5.45494 15.8001
-7.21537 5.54325 15.7877
-7.0639 5.66112 15.7638
-6.92492 5.77301 15.6601
-6.74117 5.86835 15.6465
-6.63575 6.01977 15.6018
-6.48446 6.09176 15.464
-6.33964 6.18921 15.3841
-6.14024 6.28034 15.3838
-6.04179 6.46293 15.2793
-5.80833 6.58064 15.2571
-5.57937 6.73148 15.1629
-5.22819 6.828 15.1921
-4.77777 6.97651 15.2212
-4.2897 7.1099 15.2442
-3.69773 7.21071 15.2922
-3.04085 7.43163 15.3067
-2.36583 7.57476 15.3994
-1.60462 7.65417 15.4579
-0.844701 7.78611 15.4598
-0.094445 7.98506 15.4599
0.622908 8.17422 15.4461
1.35365 8.28557 15.4349
2.05064 8.4806 15.4839
2.71001 8.61041 15.374
3.39201 8.81632 15.263
4.05636 8.9386 15.296
4.77791 9.15915 15.274
5.31103 9.21926 15.2855
5.92842 9.49716 15.3246
6.42915 9.66483 15.356
6.77685 9.81539 15.4315
7.12113 9.97404 15.4815
7.31192 10.132 15.5114
7.42026 10.2174 15.5103
7.45002 10.3448 15.4377
7.34757 10.4311 15.4302
7.26377 10.6534 15.3923
7.02237 10.7064 15.3679
6.80459 10.8084 15.2722
6.44269 10.8859 15.1943
6.10707 10.9789 15.1836
5.88568 11.1762 15.0614
5.54729 11.2259 15.0532
5.25563 11.3805 15.0351
4.98849 11.479 14.9649
4.71967 11.5835 14.8926
4.47625 11.6775 14.8571
4.25225 11.7923 14.7635
4.10608 11.9434 14.7249
3.95316 12.1368 14.6465
3.93683 12.2879 14.5971
4.00237 12.4534 14.5917
4.20542 12.5634 14.5608
4.45119 12.7427 14.61
4.81576 12.9299 14.6326
5.30655 13.1195 14.6687
5.63538 13.1432 14.7931
6.02666 13.3408 14.774
6.58005 13.5617 14.7546
6.99594 13.7025 14.7196
7.47894 14.0023 14.7325
7.90668 14.1679 14.7743
8.20669 14.2294 14.8507
8.51631 14.3925 14.9169
8.72777 14.6073 15.002
8.87391 14.8273 15.1889
8.94077 14.9748 15.239
8.91487 15.1936 15.2997
8.85464 15.267 15.305
8.67799 15.4958 15.3335
8.49065 15.5595 15.2953
8.16127 15.6852 15.196
7.92021 15.9079 15.1912
7.62408 16.164 15.1276
7.17009 16.1927 15.0029
6.81936 16.3812 15.0515
6.50073 16.5299 14.998
6.21615 16.7213 14.975
5.90218 16.8777 14.8882
5.65595 17.0621 14.7926
5.38299 17.2737 14.7176
5.12415 17.4192 14.6345
4.91281 17.596 14.5333
4.65587 17.8141 14.4343
4.43118 17.9805 14.3069
4.21252 18.149 14.1969
4.00842 18.3462 14.0961
3.79844 18.5169 13.9759
3.632 18.705 13.8855
3.45094 18.8779 13.8101
3.29203 19.0956 13.688
3.13063 19.2755 13.6157
2.98949 19.4533 13.5014
2.86724 19.6911 13.4082
2.71622 19.8665 13.3563
2.57773 20.0656 13.2727
2.47626 20.2767 13.2168
2.35094 20.4756 13.187
2.22618 20.6831 13.1778
2.15075 20.8527 13.1303
2.07041 21.0144 13.14
1.993 21.1329 13.1536
1.91385 21.1834 13.1615
1.84219 21.1806 13.1646
1.82098 21.1625 13.1464
1.77124 21.0631 13.1708
1.73012 20.9719 13.1768
1.64634 20.8135 13.1791
1.62814 20.5635 13.1576
1.60276 20.3533 13.1577
1.59138 20.1237 13.1578
1.60781 19.8701 13.1323
1.56501 19.6152 13.1039
1.58959 19.3509 13.0946
1.59685 19.0575 13.0919
1.58688 18.8315 13.1087
1.59461 18.6124 13.0829
1.59542 18.3559 13.0896
1.63188 18.1368 13.069
1.63218 17.9311 13.0833
1.66933 17.7154 13.1108
1.69181 17.4874 13.1624
1.73211 17.2364 13.2202
1.80927 16.9057 13.2604
1.8596 16.5614 13.3305
1.89025 16.1497 13.4084
1.95822 15.7402 13.456
2.01608 15.2709 13.506
2.0388 14.6956 13.563
2.1469 14.1074 13.5672
2.2378 13.5112 13.5396
2.28341 12.874 13.5957
2.33478 12.1785 13.5467
2.47058 11.4391 13.5908
2.54361 10.7471 13.6036
2.62763 10.0136 13.5863
2.68675 9.27934 13.5944
2.79459 8.61927 13.6191
2.94693 7.99181 13.6516
3.01157 7.27463 13.5916
3.1297 6.54292 13.6269
3.25252 5.95182 13.6749
3.39322 5.30024 13.755
3.50665 4.62211 13.8489
3.63828 3.96174 13.8523
3.76938 3.26621 14.0263
3.89906 2.57362 14.0178
4.0558 1.87399 14.124
4.19074 1.1928 14.1317
4.34828 0.45104 14.2862
4.51045 -0.272135 14.3535
4.67427 -0.989785 14.3801
4.82198 -1.6757 14.4872
4.95944 -2.27966 14.5818
5.09795 -2.99885 14.6064
5.30432 -3.63109 14.5696
5.46913 -4.26005 14.6393
5.63621 -4.81277 14.6943
5.81613 -5.32323 14.6573
5.96796 -5.80696 14.7147
6.14544 -6.21479 14.7756
6.35572 -6.59281 14.8281
6.5338 -6.82235 14.837
6.75246 -7.09191 14.8722
6.92427 -7.22467 14.9006
7.11735 -7.3892 14.9249
7.29937 -7.47333 14.867
7.48727 -7.61832 14.8572
7.70364 -7.66421 14.7833
7.90764 -7.75831 14.8172
8.10988 -7.83039 14.6917
8.31064 -7.92573 14.6389
8.54931 -7.99455 14.5791
8.74135 -8.06214 14.5448
8.96628 -8.20686 14.4889
9.1545 -8.22357 14.428
9.40886 -8.28284 14.3372
9.62336 -8.3015 14.3488
9.86955 -8.2591 14.3658
10.0865 -8.27468 14.3573
10.3342 -8.19154 14.3007
10.5731 -8.11698 14.2495
10.8094 -8.01933 14.2465
11.0518 -7.76756 14.2227
11.2993 -7.7323 14.2621
11.5507 -7.53424 14.1834
11.8315 -7.43431 14.2114
12.0242 -7.20544 14.1904
12.2629 -7.08445 14.238
12.4773 -6.96768 14.2807
12.6279 -6.8311 14.415
12.6904 -6.66353 14.5284
12.6829 -6.4823 14.6076
12.5678 -6.30321 14.7411
12.3943 -6.14612 14.7969
12.1453 -6.02532 14.8558
11.8179 -5.95155 14.8694
11.4501 -5.8012 14.8325
11.0643 -5.61384 14.8517
10.5822 -5.4877 14.8289
10.1063 -5.37521 14.8641
9.66204 -5.25446 14.9017
9.21341 -5.1246 14.8996
8.75522 -5.06951 14.9189
8.35451 -4.92272 14.9059
7.97382 -4.80474 14.8921
7.57165 -4.5796 14.8959
7.18538 -4.55595 14.9239
6.82912 -4.36541 14.8838
6.47263 -4.30142 14.8722
6.08295 -4.23547 14.7799
5.79303 -4.04614 14.7243
5.42936 -3.92025 14.6585
5.11753 -3.70641 14.552
4.82827 -3.63 14.5106
4.51724 -3.43915 14.4401
4.22765 -3.39029 14.4174
3.94644 -3.18871 14.4048
3.64983 -3.06958 14.3522
3.42295 -2.95389 14.3382
3.18062 -2.80343 14.188
2.91742 -2.61232 14.1294
2.61981 -2.57962 14.1275
2.43859 -2.35908 14.0748
2.23455 -2.24784 14.0857
2.0157 -2.11142 14.0038
1.77594 -1.95263 14.0663
1.58231 -1.80608 13.9473
1.37058 -1.58446 13.9948
1.20288 -1.46314 13.8846
1.00853 -1.35077 13.9705
0.840663 -1.16953 13.875
0.646901 -1.04019 13.9462
0.47694 -0.844509 13.9365
0.364924 -0.732539 13.8337
0.292143 -0.551165 13.8072
0.288003 -0.420115 13.8833
0.386904 -0.255951 13.9782
0.519543 -0.0997078 14.0581
0.767509 0.0708117 14.0782
1.14901 0.193445 14.1645
1.55711 0.341377 14.2811
2.03987 0.512117 14.391
2.58161 0.70484 14.5306
3.14721 0.867754 14.5947
3.73284 1.05821 14.6999
4.28991 1.19024 14.7977
4.84659 1.31636 14.7867
5.40301 1.5762 14.7485
5.89953 1.66824 14.8917
6.42038 1.8347 14.9204
6.92751 2.01034 14.9628
7.34999 2.19387 15.067
7.75984 2.41377 15.1969
8.07789 2.62429 15.29
8.2923 2.79215 15.3466
8.41386 2.95072 15.4701
8.45499 3.02712 15.4724
8.39656 3.19279 15.5069
8.27473 3.33939 15.4796
8.11931 3.48018 15.4247
7.92005 3.54961 15.3827
7.6503 3.77151 15.3736
7.36249 3.89916 15.3142
7.08179 4.06966 15.2034
6.84867 4.11171 15.1801
6.59973 4.33949 15.205
6.32745 4.53588 15.1316
6.12448 4.60512 15.0729
5.89769 4.69152 15.0261
5.70426 4.85349 15.0165
5.42397 5.02316 14.9633
5.13913 5.12615 14.9334
4.82659 5.3418 14.9342
4.47609 5.44934 14.8244
4.10317 5.57483 14.8337
3.68481 5.73955 14.7466
3.27807 5.88532 14.7983
2.81216 6.0427 14.7247
2.37966 6.17971 14.6462
1.97123 6.34835 14.7109
1.52138 6.5174 14.7141
1.13232 6.70099 14.706
0.73275 6.7872 14.5878
0.381195 6.95298 14.5504
-0.000699211 7.10368 14.5119
-0.340898 7.2416 14.4036
-0.66077 7.41399 14.3006
-0.960727 7.54347 14.2335
-1.15408 7.71595 14.2808
-1.42423 7.77612 14.2104
-1.57467 7.84709 14.1516
-1.73381 8.03435 14.1613
-1.85803 8.01412 14.1595
-1.87918 8.05889 14.048
-1.93627 8.02346 14.0992
-1.96943 7.99525 13.9767
-1.94221 7.91813 13.9374
-1.9322 7.85644 13.8982
-1.89134 7.81449 13.8104
-1.81731 7.63895 13.8623
-1.78446 7.58203 13.7422
-1.71213 7.44991 13.742
-1.67154 7.37325 13.7462
-1.60239 7.28482 13.6704
-1.50232 7.24285 13.6771
-1.42391 7.06204 13.6509
-1.3664 7.03651 13.6305
-1.28994 6.86191 13.7549
-1.22926 6.61754 13.8423
-1.12842 6.33141 13.9128
-1.05977 6.0452 14.0407
-0.979551 5.58379 14.1754
-0.893431 5.14209 14.2082
-0.775603 4.57904 14.229
-0.672813 3.99061 14.2215
-0.545006 3.3442 14.2271
-0.476972 2.66293 14.2206
-0.355877 2.02239 14.3189
-0.242851 1.37058 14.3639
-0.119652 0.710805 14.3676
-0.0100534 0.129153 14.4492
0.140042 -0.503138 14.3744
0.229072 -1.14071 14.3759
0.377409 -1.69084 14.3582
0.487128 -2.27509 14.4089
0.638149 -2.93938 14.362
0.713152 -3.45878 14.2585
0.931244 -3.96954 14.2502
1.06872 -4.54378 14.1777
1.24391 -5.00137 14.0905
1.37004 -5.5638 14.025
1.56243 -6.07953 13.9729
1.72695 -6.57682 14.0301
1.86637 -7.05603 13.9571
1.97613 -7.53544 13.9686
2.08917 -8.06761 14.0223
2.13487 -8.50615 14.0771
2.18066 -8.91057 14.0641
2.13764 -9.41781 14.0987
2.05905 -9.85796 14.1594
1.95534 -10.2482 14.2096
1.80179 -10.7376 14.1663
1.71197 -11.1205 14.1692
1.56874 -11.5437 14.1672
1.4576 -11.8891 14.2158
1.34654 -12.3286 14.2178
1.24983 -12.6892 14.2223
1.12562 -13.1525 14.26
1.07549 -13.516 14.2181
0.956243 -13.9391 14.1978
0.886313 -14.2827 14.2382
0.824744 -14.6473 14.1889
0.776442 -14.9825 14.0724
0.70945 -15.3426 14.0136
0.671316 -15.6198 13.9895
0.596858 -15.9044 13.9368
0.571563 -16.1623 13.9553
0.515673 -16.2942 13.9392
0.478802 -16.4788 13.8697
0.472824 -16.4922 13.9034
0.482867 -16.6197 13.8402
0.385699 -16.6509 13.861
0.4223 -16.6084 13.9031
0.404769 -16.4984 13.8239
0.389973 -16.3741 13.8544
0.414105 -16.2524 13.8091
0.463797 -16.114 13.7916
0.398751 -16.0191 13.7682
0.445216 -15.8443 13.8001
0.456914 -15.6985 13.697
0.480089 -15.5971 13.6865
0.473244 -15.4669 13.7226
0.515581 -15.3608 13.6389
0.524426 -15.2025 13.6711
0.650923 -15.064 13.6304
0.636668 -14.9441 13.6024
0.681649 -14.8275 13.5461
0.739005 -14.689 13.5665
0.806203 -14.5241 13.6151
0.866042 -14.4 13.5294
0.927826 -14.2095 13.58
0.990449 -14.0747 13.4734
1.06126 -13.8447 13.4899
1.15133 -13.6411 13.5573
1.22315 -13.2755 13.5986
1.28748 -12.9492 13.6955
1.42096 -12.5705 13.7748
1.45332 -12.2489 13.789
1.56737 -11.8452 13.9329
1.69325 -11.4632 13.9004
1.79021 -11.0785 13.9428
1.8799 -10.7313 14.0292
1.9668 -10.3686 14.072
2.05867 -10.0537 14.0448
2.12914 -9.68873 14.092
2.22847 -9.31929 14.1067
2.23753 -8.92307 14.1595
2.24981 -8.58925 14.2267
2.28021 -8.26142 14.1858
2.19957 -7.89226 14.2785
2.11133 -7.53342 14.2866
2.05105 -7.15477 14.1704
1.83259 -6.89905 14.1835
1.77938 -6.5532 14.1883
1.55459 -6.24703 14.1566
1.40203 -5.91986 14.2083
1.25893 -5.52823 14.1413
1.08621 -5.19886 14.169
0.944361 -4.89647 14.1087
0.79963 -4.56289 14.1161
0.672612 -4.23534 14.1109
0.51002 -3.95201 14.1598
0.308595 -3.62623 14.2452
0.106942 -3.3139 14.3427
-0.163343 -2.97899 14.4417
-0.478015 -2.64868 14.5753
-0.912129 -2.28747 14.7588
-1.29787 -2.05894 14.811
-1.79748 -1.69832 14.896
-2.29133 -1.45771 15.0015
-2.77224 -1.14338 15.0303
-3.26241 -0.853587 15.1316
-3.77884 -0.637793 15.2608
-4.21388 -0.335033 15.2359
-4.70233 -0.0107905 15.3373
-5.11587 0.239131 15.4097
-5.57795 0.529548 15.3729
-5.988 0.77999 15.4709
-6.37704 1.06321 15.3418
-6.76604 1.36403 15.3449
-7.06147 1.66524 15.3491
-7.31444 1.9287 15.3251
-7.46222 2.21654 15.357
-7.55349 2.49561 15.3645
-7.58072 2.76336 15.3202
-7.53047 3.05256 15.3546
-7.42586 3.27906 15.3468
-7.24865 3.56215 15.4778
-7.06365 3.83194 15.439
-6.87112 4.10166 15.4381
-6.67497 4.38598 15.4138
-6.4921 4.57725 15.3851
-6.32289 4.91154 15.4366
-6.11014 5.24895 15.3197
-5.93274 5.50113 15.2788
-5.75803 5.7135 15.3335
-5.55135 6.01074 15.2501
-5.37476 6.31041 15.265
-5.19351 6.50232 15.2845
-5.01039 6.7134 15.2033
-4.82304 6.82799 15.2062
-4.61568 6.949 15.1951
-4.45466 7.00085 15.1775
-4.2503 7.08284 15.1465
-4.03751 7.0194 15.0798
-3.84909 7.08085 15.0324
-3.64993 6.96318 14.9236
-3.47761 6.9308 14.8777
-3.26216 6.79834 14.9116
-3.10103 6.70575 14.8541
-2.92723 6.5503 14.8376
-2.7574 6.48256 14.7931
-2.64141 6.36639 14.7714
-2.56165 6.30662 14.8499
-2.48225 6.17387 14.8319
-2.44123 6.05249 14.7566
-2.48571 5.9701 14.7482
-2.54393 5.9282 14.8195
-2.64024 5.86553 14.7808
-2.81134 5.75323 14.7756
-2.96869 5.70074 14.7355
-3.14475 5.63014 14.746
-3.39553 5.56301 14.77
-3.6502 5.52269 14.7161
-3.87051 5.41389 14.7243
-4.18405 5.33579 14.7076
-4.41581 5.22626 14.7496
-4.71797 5.13539 14.7229
-4.93644 5.02341 14.7034
-5.18958 4.85899 14.76
-5.41594 4.71125 14.7055
-5.63459 4.52595 14.7607
-5.84424 4.36996 14.7557
-6.05855 4.19855 14.7196
-6.2688 3.98515 14.6651
-6.41744 3.7605 14.6322
-6.56114 3.53205 14.6134
-6.72146 3.39491 14.6635
-6.8407 3.18648 14.6156
-6.92101 3.00693 14.6373
-7.01587 2.79842 14.6054
-7.05164 2.6381 14.5617
-7.04425 2.49394 14.5007
-7.00887 2.37343 14.5586
-6.93103 2.20908 14.5712
-6.83439 2.01513 14.5365
-6.6327 1.89731 14.5875
-6.4389 1.72957 14.5455
-6.22837 1.68513 14.6082
-5.93668 1.50632 14.5879
-5.66215 1.38878 14.5741
-5.37246 1.32031 14.6201
-5.0791 1.19706 14.5749
-4.76445 1.09337 14.6581
-4.42743 0.964455 14.5581
-4.06696 0.86346 14.5694
-3.80155 0.802176 14.6089
-3.50271 0.721273 14.5858
-3.23643 0.630302 14.6432
-3.02822 0.556973 14.7334
-2.81506 0.44482 14.7771
-2.62426 0.350681 14.7959
-2.54788 0.265089 14.8959
-2.60312 0.179619 15.0188
-2.65423 0.132846 15.0513
-2.90018 0.055586 15.1676
-3.11595 -0.0426803 15.1748
-3.4251 -0.149352 15.1543
-3.76082 -0.16937 15.2042
-4.14514 -0.311774 15.2179
-4.56783 -0.340043 15.2186
-4.97179 -0.422332 15.2819
-5.38263 -0.473409 15.2963
-5.75264 -0.561096 15.2907
-6.05889 -0.586332 15.308
-6.34755 -0.65914 15.411
-6.55149 -0.67421 15.4218
-6.66361 -0.715549 15.4826
-6.63563 -0.789487 15.5292
-6.59242 -0.833682 15.6113
-6.40926 -0.905449 15.6806
-6.19297 -0.959143 15.7167
-5.94104 -1.01849 15.7467
-5.62536 -1.09976 15.7289
-5.37512 -1.05761 15.722
-5.09553 -1.14125 15.6595
-4.78741 -1.15068 15.6156
-4.47186 -1.12502 15.5819
-4.23574 -1.19921 15.4379
-3.89117 -1.24724 15.3776
-3.6127 -1.27737 15.3448
-3.304 -1.26018 15.2937
-3.02088 -1.25433 15.1592
-2.72184 -1.23514 15.1064
-2.40039 -1.27585 15.0196
-2.14199 -1.28252 14.9738
-1.86939 -1.1921 14.8881
-1.56107 -1.27897 14.841
-1.28454 -1.23968 14.782
-1.00926 -1.1805 14.664
-0.738759 -1.18805 14.5771
-0.431876 -1.15523 14.5971
-0.209572 -1.09088 14.5388
0.0662486 -1.00711 14.5091
0.36043 -1.04225 14.5103
0.621867 -1.01556 14.5031
0.916299 -0.966262 14.5162
1.15375 -0.98604 14.4743
1.41416 -0.874085 14.5332
1.67674 -0.869684 14.5198
1.92662 -0.820704 14.5376
2.18063 -0.822382 14.5299
2.43049 -0.765995 14.5312
2.67317 -0.752628 14.5428
2.92569 -0.731156 14.5449
3.18017 -0.747837 14.5454
3.42333 -0.654094 14.5147
3.6903 -0.649031 14.5201
3.96787 -0.522588 14.4546
4.20629 -0.585385 14.5101
4.43439 -0.519886 14.4952
4.65902 -0.501053 14.3976
4.95292 -0.538324 14.383
5.17284 -0.460558 14.3889
5.42329 -0.420169 14.3518
5.6773 -0.392929 14.3689
5.93164 -0.348849 14.3786
6.18497 -0.35247 14.3659
6.44038 -0.263413 14.3716
6.71934 -0.222256 14.3727
6.96209 -0.22999 14.33
7.24884 -0.149081 14.3588
7.51544 -0.151994 14.3134
7.79028 -0.104394 14.3531
8.07959 -0.0539105 14.2947
8.35191 -0.0220265 14.3509
8.60732 -0.0416698 14.2676
8.85807 -0.0410927 14.3184
9.19323 -0.0152206 14.3449
9.47544 -0.0124823 14.3911
9.70686 0.115708 14.4176
9.99891 0.125567 14.4142
10.309 0.182815 14.4538
10.5986 0.253018 14.4842
10.8691 0.297479 14.5129
11.1812 0.350315 14.5471
11.4864 0.391729 14.5573
11.785 0.460131 14.6087
12.1393 0.574587 14.5991
12.4528 0.64763 14.6404
12.7667 0.727806 14.6945
13.0725 0.862109 14.7164
13.3257 0.821247 14.7841
13.6685 0.782997 14.7774
13.9638 0.870937 14.8634
14.2524 0.965238 14.8721
14.5149 1.0292 14.9205
14.7833 1.19258 14.9969
15.0871 1.262 15.0075
15.3677 1.3862 15.0446
15.6639 1.49395 15.0964
15.9793 1.5643 15.1407
16.2667 1.6456 15.2086
16.5713 1.80502 15.1648
16.8362 1.88408 15.2085
17.1541 1.96825 15.2645
17.4604 2.0748 15.3665
17.705 2.1373 15.4515
17.9522 2.20585 15.5202
18.1471 2.24316 15.6911
18.3577 2.22841 15.8158
18.4613 2.35814 15.953
18.4822 2.40613 16.1276
18.4245 2.43768 16.2639
18.3605 2.44285 16.3726
18.2576 2.47045 16.4691
18.0234 2.54951 16.5535
17.8011 2.70186 16.5794
17.5279 2.79207 16.6965
17.2204 2.85129 16.7497
16.9164 2.90632 16.7859
16.6618 2.98518 16.8758
16.3743 3.08901 16.9479
16.1276 3.22771 16.9804
15.9088 3.27265 17.0327
15.6674 3.35661 17.0195
15.4471 3.4475 17.04
15.2537 3.55538 17.0504
15.0617 3.65186 17.043
14.881 3.7378 16.9963
14.6954 3.83604 16.9563
14.4976 3.93821 16.9607
14.3354 4.02177 16.8974
14.1939 4.15156 16.8819
14.0509 4.21594 16.8527
13.9235 4.35673 16.8521
13.8099 4.41561 16.7943
13.6954 4.58542 16.7881
13.5603 4.6621 16.753
13.4563 4.74492 16.7657
13.3674 4.834 16.7821
13.2981 4.99102 16.7613
13.2184 5.06467 16.7585
13.0978 5.25737 16.7705
13.0314 5.32607 16.6635
12.9606 5.49444 16.7397
12.8712 5.65134 16.6224
12.8416 5.73252 16.7059
12.7789 5.79333 16.6525
12.7271 5.95641 16.5968
12.6845 6.06453 16.6757
12.6975 6.26503 16.6338
12.6766 6.39921 16.6791
12.5875 6.52967 16.6965
12.5044 6.68455 16.7758
12.3802 6.85562 16.8128
12.2427 7.02378 16.8675
12.0133 7.06418 16.8767
11.7985 7.2436 16.9118
11.4437 7.24742 16.9002
11.1401 7.3436 16.8723
10.8138 7.51386 16.943
10.5481 7.78087 16.8982
10.1543 7.80827 16.91
9.82645 7.93346 16.8858
9.39963 7.93219 16.8753
9.11299 8.17461 16.9178
8.81357 8.26394 16.8983
8.41931 8.34312 16.8337
8.23429 8.61241 16.7847
7.82468 8.59009 16.698
7.56299 8.7862 16.6224
7.32521 9.02142 16.5112
6.99609 9.05048 16.4975
6.71711 9.17293 16.3892
6.4779 9.37421 16.2704
6.13818 9.34082 16.243
5.92566 9.61357 16.2282
5.65523 9.65694 16.1743
5.4223 9.74729 16.0989
5.2708 10.0448 16.2196
4.95014 9.98974 16.1026
4.75215 10.0952 16.1064
4.5422 10.1618 16.2192
4.36167 10.2415 16.168
4.16872 10.2557 16.2144
3.99555 10.2101 16.2833
3.80956 10.2025 16.2958
3.62492 10.1197 16.3712
3.47749 9.98536 16.362
3.31121 9.83317 16.384
3.14766 9.57219 16.3894
3.02901 9.41001 16.3483
2.86108 9.18164 16.3104
2.71377 8.93054 16.2933
2.60653 8.6922 16.172
2.41428 8.36383 16.0449
2.25886 7.98362 15.8625
2.18187 7.73533 15.754
2.03656 7.3144 15.5777
1.8925 6.88043 15.428
1.82217 6.56453 15.3497
1.69196 6.20727 15.2267
1.57032 5.80362 15.0429
1.47226 5.43643 14.9656
1.41167 5.03663 14.8927
1.32406 4.64903 14.8431
1.24719 4.33808 14.8944
1.15434 3.92403 14.8262
1.10639 3.62192 14.8028
1.05017 3.2418 14.8503
1.02756 2.90377 14.9713
0.955124 2.58225 14.9461
0.918263 2.17597 14.9832
0.893428 1.92578 15.0372
0.879988 1.61287 15.0191
0.847008 1.26142 14.9856
0.797476 0.936907 14.8898
0.766094 0.673578 14.7458
0.761641 0.366795 14.6443
0.743381 0.0249679 14.3979
0.716542 -0.210468 14.1189
0.753876 -0.488629 13.8788
0.727933 -0.83128 13.5752
0.724707 -1.1028 13.2958
0.726937 -1.36045 13.0643
0.724223 -1.63299 12.851
0.744624 -1.91423 12.5457
0.753303 -2.18956 12.3111
0.840509 -2.36156 12.1803
0.843626 -2.55737 11.9944
0.880165 -2.76282 11.9292
0.947529 -2.86803 11.8907
1.00518 -2.9218 11.8446
1.12118 -3.01601 11.8991
1.1499 -2.98412 11.9494
1.24922 -2.91566 11.9746
1.31578 -2.96603 12.1153
1.40268 -2.89561 12.1758
1.54719 -2.77156 12.1728
1.62201 -2.5996 12.1659
1.76548 -2.5678 12.2567
1.85628 -2.36585 12.2656
1.95364 -2.18377 12.2132
2.07819 -2.01168 12.2152
2.24435 -1.89901 12.2446
2.34754 -1.72483 12.2114
2.46504 -1.55095 12.1658
2.6008 -1.43503 12.1775
2.72945 -1.19772 12.1788
2.88878 -1.06581 12.1932
3.01322 -0.846833 12.2004
3.17333 -0.690657 12.2495
3.30087 -0.546676 12.2826
3.43319 -0.372855 12.3107
3.52973 -0.213756 12.3112
3.53417 -0.0844546 12.4064
3.57039 0.061607 12.4625
3.54972 0.202196 12.4856
3.4831 0.338339 12.4373
3.43246 0.564945 12.5409
3.29011 0.661573 12.5593
3.17792 0.841948 12.4827
2.99395 0.99128 12.506
2.843 1.10822 12.4526
2.72047 1.2091 12.421
2.5387 1.4015 12.4313
2.39097 1.53267 12.4159
2.24537 1.68417 12.4324
2.12562 1.81282 12.4378
2.00919 1.99166 12.4164
1.90536 2.10345 12.4121
1.815 2.2149 12.4261
1.6951 2.39908 12.3445
1.59091 2.49919 12.295
1.49346 2.66655 12.3238
1.40266 2.77526 12.3043
1.33157 2.9551 12.2528
1.26578 3.0732 12.2929
1.21485 3.18217 12.3224
1.12204 3.37846 12.2018
1.07205 3.56256 12.3052
1.02858 3.62848 12.2141
0.998718 3.86716 12.2524
0.945948 4.01436 12.2187
0.942978 4.18424 12.1771
0.906274 4.33352 12.2358
0.894621 4.46983 12.1866
0.873281 4.61272 12.2228
0.833894 4.78615 12.2375
0.839474 4.92818 12.2517
0.857701 5.06769 12.1686
0.84706 5.29493 12.1478
0.862972 5.42275 12.1391
0.870003 5.59429 12.1236
0.892247 5.73391 12.1093
0.904763 5.89796 12.0653
0.904859 6.07832 12.1037
0.938441 6.28328 11.9921
0.975777 6.41935 11.937
0.996217 6.58281 11.7973
1.02131 6.70256 11.7755
1.09338 6.90564 11.8366
1.14474 6.94394 11.81
1.17944 7.02164 11.9563
1.21224 7.09849 12.0342
1.23906 7.06191 12.0786
1.26761 6.95289 12.162
1.38548 6.68858 12.1429
1.40479 6.54823 12.2503
1.51877 6.2348 12.1763
1.58309 5.99534 12.2545
1.64423 5.61486 12.241
1.73648 5.27999 12.2292
1.78912 4.90527 12.1882
1.84729 4.3876 12.1777
1.96397 3.96521 12.2484
2.05771 3.59276 12.2539
2.15777 3.11152 12.1809
2.25487 2.71044 12.2053
2.33725 2.29807 12.1758
2.45313 1.88562 12.2672
2.54465 1.43844 12.1839
2.65731 1.03157 12.1763
2.79854 0.710928 12.2572
2.90746 0.251843 12.2446
3.03563 -0.0836324 12.23
3.1419 -0.449945 12.2704
3.29838 -0.864387 12.3334
3.36189 -1.24402 12.2871
3.47717 -1.56897 12.3442
3.54928 -1.91674 12.3233
3.59586 -2.24191 12.4168
3.66613 -2.54563 12.3991
3.63752 -2.87851 12.5022
3.64352 -3.17689 12.4679
3.58985 -3.51218 12.4369
3.49576 -3.87022 12.4733
3.4701 -4.20808 12.4551
3.42739 -4.50199 12.4559
3.41292 -4.72085 12.5536
3.32925 -5.10516 12.473
3.32907 -5.34399 12.5573
3.30564 -5.62028 12.47
3.28294 -5.86082 12.4765
3.25482 -6.19868 12.5133
3.24439 -6.4953 12.4435
3.21712 -6.74682 12.5106
3.18824 -6.9955 12.5571
3.13731 -7.30331 12.6081
3.01679 -7.55134 12.6211
2.94358 -7.79061 12.6707
2.72323 -8.08284 12.7768
2.464 -8.26984 12.7691
2.21595 -8.55249 12.8072
1.852 -8.76419 12.9598
1.51498 -8.95586 12.9394
1.14821 -9.25088 12.9882
0.759825 -9.48174 13.0462
0.454426 -9.64495 13.1549
0.0956419 -9.9166 13.2194
-0.218593 -10.074 13.215
-0.471163 -10.2977 13.234
-0.79537 -10.5233 13.2885
-1.09167 -10.6997 13.2711
-1.35119 -10.8146 13.292
-1.6436 -11.002 13.3169
-1.9393 -11.1442 13.2264
-2.16312 -11.2098 13.2003
-2.4067 -11.3364 13.2522
-2.59913 -11.2912 13.2188
-2.82061 -11.3768 13.2344
-3.01639 -11.3267 13.2574
-3.20851 -11.2475 13.2489
-3.36174 -11.1471 13.2221
-3.53586 -11.0366 13.2593
-3.70865 -10.9543 13.212
-3.84034 -10.776 13.2063
-3.99271 -10.675 13.2205
-4.08155 -10.5055 13.1693
-4.12681 -10.285 13.1267
-4.21374 -10.1653 13.0923
-4.26152 -10.0309 13.1332
-4.22816 -9.84338 13.0396
-4.24879 -9.73571 13.1082
-4.18925 -9.46513 13.0944
-4.18074 -9.37558 13.1731
-4.14317 -9.29497 13.1318
-4.0633 -9.08975 13.1217
-4.08148 -9.00127 13.1674
-3.9846 -8.87804 13.0916
-3.86351 -8.68732 13.0958
-3.83271 -8.58542 13.1118
-3.75061 -8.44387 13.1373
-3.59529 -8.34056 13.1077
-3.55231 -8.18262 13.1121
-3.47547 -8.02195 13.1124
-3.38243 -7.89809 13.0922
-3.27007 -7.76466 13.1906
-3.17362 -7.64862 13.1342
-3.07559 -7.52291 13.1291
-2.94155 -7.37131 13.0391
-2.83711 -7.26797 13.0457
-2.70778 -7.15894 13.0681
-2.60045 -6.9906 13.0123
-2.50767 -6.82578 12.9072
-2.37896 -6.77399 12.9362
-2.28282 -6.56988 12.7851
-2.15438 -6.49913 12.6925
-2.01129 -6.40505 12.5426
-1.91792 -6.27055 12.4541
-1.78162 -6.09195 12.2707
-1.65715 -6.02456 12.0278
-1.55948 -5.86653 11.8493
-1.41371 -5.72628 11.5354
-1.23079 -5.62682 11.2348
-1.10477 -5.48041 10.8484
-0.979022 -5.3749 10.558
-0.834548 -5.27876 10.1447
-0.699738 -5.13832 9.80744
-0.524535 -5.01751 9.60021
-0.372918 -4.91089 9.16918
-0.208901 -4.75626 8.882
-0.0506775 -4.61873 8.70663
0.097746 -4.528 8.5791
0.295607 -4.34345 8.32798
0.398563 -4.19193 8.24344
0.482315 -4.08182 8.26232
0.577414 -3.93839 8.23158
0.663788 -3.83051 8.21459
0.721337 -3.68344 8.23896
0.784386 -3.51955 8.34337
0.807051 -3.42826 8.56043
0.848652 -3.24768 8.60491
0.885613 -3.12225 8.81443
0.874231 -2.99477 8.86469
0.88578 -2.86216 8.91942
0.909459 -2.76897 8.96555
0.912426 -2.55665 9.04385
0.927837 -2.42551 9.10228
0.947908 -2.35126 9.14492
0.977432 -2.21452 9.17341
1.03962 -2.09448 9.10782
1.07683 -1.93645 9.09218
1.11598 -1.79924 9.15681
1.21158 -1.64319 9.02964
1.2314 -1.52814 9.03694
1.30219 -1.3537 8.9645
1.38443 -1.24347 8.97525
1.44665 -1.11052 8.97348
1.53488 -0.945234 8.96219
1.63803 -0.835957 8.90006
1.71602 -0.699413 8.72236
1.7924 -0.499454 8.72503
1.89803 -0.380475 8.6158
1.96423 -0.253267 8.48211
2.04216 -0.0889991 8.48204
2.13956 0.0340634 8.37765
2.17141 0.185797 8.34155
2.21433 0.359255 8.37899
2.22262 0.489502 8.3649
2.24872 0.587871 8.40781
2.20482 0.76455 8.4646
2.25664 0.932957 8.48581
2.25755 1.04482 8.46274
2.26761 1.22504 8.46539
2.27561 1.35507 8.45449
2.28465 1.50796 8.49621
2.31929 1.64564 8.44792
2.33007 1.8269 8.54155
2.38106 1.9539 8.47783
2.38647 2.13882 8.40685
2.42488 2.30297 8.43703
2.47165 2.41267 8.3555
2.51502 2.60115 8.37448
2.58976 2.76482 8.31912
2.62287 2.87909 8.26406
2.6797 3.06175 8.23403
2.73389 3.21445 8.25012
2.81939 3.35579 8.18291
2.87759 3.47524 8.12324
2.9567 3.6802 8.10711
3.0266 3.81175 8.1742
3.10069 3.9441 8.06417
3.18931 4.1045 8.02082
3.28064 4.30972 7.99021
3.35296 4.42811 7.87632
3.45518 4.59286 7.90937
3.52231 4.7281 7.75839
3.66291 4.87895 7.74219
3.75079 5.04362 7.69324
3.84942 5.18385 7.56799
3.94063 5.34337 7.53016
4.06416 5.52945 7.50695
4.20199 5.67946 7.46254
4.27831 5.87447 7.58531
4.29789 6.01799 7.69774
4.36184 6.09842 7.72752
4.35281 6.15706 7.84911
4.35579 6.27388 7.93188
4.30463 6.22747 7.96323
4.28105 6.2479 8.01718
4.25281 6.21927 8.08787
4.30584 6.11133 8.09561
4.2197 5.94553 8.0765
4.24258 5.84648 8.13991
4.24532 5.69569 8.11183
4.2287 5.56138 8.11146
4.22046 5.34445 8.11712
4.21524 5.22987 8.11601
4.28161 5.0981 8.0549
4.27921 4.94327 8.06255
4.27821 4.81361 7.98339
4.35953 4.71738 7.81883
4.35855 4.56491 7.79123
4.39236 4.47821 7.65524
4.4513 4.3308 7.56924
4.48662 4.17426 7.39065
4.51986 4.07736 7.28138
4.56726 3.96224 7.29292
4.66863 3.88018 7.18939
4.70232 3.78274 7.16775
4.77597 3.69554 7.12324
4.76459 3.57384 7.16554
4.81892 3.47769 7.13986
4.8154 3.39545 7.15573
4.79489 3.30751 7.20037
4.75081 3.20119 7.15944
4.65274 3.16709 7.24468
4.57564 3.06752 7.21871
4.47715 3.04109 7.29995
4.43861 2.93188 7.21401
4.31711 2.88757 7.30836
4.27746 2.79828 7.34995
4.18761 2.66776 7.30373
4.13427 2.64311 7.23045
4.0766 2.63931 7.24369
4.04726 2.58525 7.26956
3.99759 2.52006 7.09973
3.9464 2.48215 7.10919
3.92832 2.42372 7.09003
3.89414 2.38286 6.95103
3.85125 2.30464 6.88384
3.8568 2.29183 6.75073
3.84325 2.26316 6.62824
3.85501 2.15908 6.45562
3.84099 2.1375 6.32899
3.85256 2.11654 6.2593
3.84 2.11569 6.10685
3.87363 2.06433 6.03006
3.881 2.0008 5.91941
3.92046 1.98493 5.80042
3.95921 1.94292 5.7529
3.96913 1.91301 5.64303
3.99011 1.84715 5.61008
4.05637 1.85622 5.5854
4.11598 1.88302 5.53421
4.12665 1.84294 5.4571
4.20083 1.78015 5.23435
4.24909 1.75666 5.12899
4.27604 1.76085 4.94739
4.38088 1.68409 4.73931
4.41259 1.71194 4.45751
4.47669 1.69247 4.1766
4.57007 1.66246 3.90858
4.61124 1.60977 3.51783
4.69117 1.63241 3.25725
4.7856 1.62947 2.88134
4.87067 1.63691 2.53018
4.94741 1.58646 2.32528
5.01755 1.60182 2.08179
5.04329 1.53456 2.07443
5.03217 1.50366 2.11696
5.00971 1.54183 2.16533
4.93717 1.47802 2.30514
4.86478 1.46582 2.38821
4.80032 1.4286 2.35848
4.69854 1.43467 2.31797
4.5979 1.38179 2.30567
4.52561 1.43697 2.30762
4.45674 1.35924 2.30472
4.39115 1.33349 2.35712
4.34091 1.31848 2.34817
4.33432 1.28149 2.46985
4.29607 1.25383 2.58229
4.26152 1.26462 2.54582
4.29896 1.22825 2.6199
4.31053 1.23495 2.56237
4.32695 1.23654 2.42494
4.32123 1.23754 2.29168
4.29773 1.18367 2.17203
4.2182 1.192 2.03901
4.12729 1.19247 2.05373
3.98551 1.20608 2.09926
3.88571 1.17361 2.08968
3.69646 1.20821 1.99205
3.52985 1.22262 1.98711
3.35819 1.26103 1.92711
3.22958 1.25941 1.99157
3.08468 1.26779 1.97392
2.94168 1.27358 2.00441
2.82974 1.26637 2.04411
2.7462 1.24482 2.16657
2.62679 1.23889 2.2036
2.5371 1.31699 2.20281
2.45006 1.27158 2.3144
2.38682 1.29611 2.23989
2.30421 1.35226 2.29965
2.27344 1.28355 2.39636
2.22341 1.29492 2.40773
2.16685 1.29115 2.43274
2.1368 1.25581 2.48755
2.12942 1.24424 2.53865
2.09958 1.26179 2.58563
2.07975 1.2575 2.60531
2.09113 1.29339 2.58013
2.08004 1.26646 2.44525
2.08921 1.24629 2.405
2.07474 1.25054 2.21663
2.03716 0.534659 2.02448
2.05513 1.20373 1.97319
2.02069 1.12777 2.02393
1.9979 1.14577 2.01848
1.96056 1.1256 2.04548
1.93234 1.11316 2.00325
1.97557 1.09625 1.90262
1.9774 1.09351 1.91482
1.99557 1.11155 1.93317
1.99557 1.11155 1.93317
2.04522 1.15247 1.90274
2.06088 1.12197 1.83741
2.06088 1.12197 1.83741
2.06088 1.12197 1.83741
2.01876 1.10237 1.90589
2.03619 1.12226 1.86494
2.03619 1.12226 1.86494
2.03619 1.12226 1.86494
2.03619 1.12226 1.86494
2.03619 1.12226 1.86494
2.01876 1.10237 1.90589
2.01876 1.10237 1.90589
2.01876 1.10237 1.90589
2.03619 1.12226 1.86494
2.03619 1.12226 1.86494
2.03619 1.12226 1.86494
2.01876 1.10237 1.90589
2.01876 1.10237 1.90589
2.01876 1.10237 1.90589
2.01876 1.10237 1.90589
2.01876 1.10237 1.90589
